466615.385	542158.003	4450.000000
466646.154	542158.003	4449.000000
466676.923	542158.003	4450.000000
466707.692	542158.003	4450.000000
466738.462	542158.003	4442.000000
466769.231	542158.003	4434.000000
466800.000	542158.003	4432.000000
466830.769	542158.003	4432.000000
466861.538	542158.003	4429.000000
466892.308	542158.003	4417.000000
466923.077	542158.003	4405.000000
466953.846	542158.003	4402.000000
466984.615	542158.003	4395.000000
467015.385	542158.003	4384.000000
467046.154	542158.003	4369.000000
467076.923	542158.003	4362.000000
468092.308	542158.003	4337.000000
468123.077	542158.003	4350.000000
468153.846	542158.003	4358.000000
468184.615	542158.003	4364.000000
468215.385	542158.003	4380.000000
468246.154	542158.003	4383.000000
468276.923	542158.003	4383.000000
468307.692	542158.003	4386.000000
468338.462	542158.003	4385.000000
468369.231	542158.003	4381.000000
468400.000	542158.003	4376.000000
468430.769	542158.003	4378.000000
468461.538	542158.003	4382.000000
468492.308	542158.003	4360.000000
468523.077	542158.003	4345.000000
468553.846	542158.003	4330.000000
468584.615	542158.003	4308.000000
468646.154	542158.003	4300.000000
468676.923	542158.003	4306.000000
468738.462	542158.003	4308.000000
468769.231	542158.003	4305.000000
468800.000	542158.003	4293.000000
468830.769	542158.003	4286.000000
468861.538	542158.003	4279.000000
468892.308	542158.003	4279.000000
468923.077	542158.003	4273.000000
468953.846	542158.003	4272.000000
468984.615	542158.003	4275.000000
469015.385	542158.003	4277.000000
469046.154	542158.003	4259.000000
469076.923	542158.003	4243.000000
469107.692	542158.003	4233.000000
469138.462	542158.003	4219.000000
464030.769	542188.782	5070.000000
464061.538	542188.782	5064.000000
464092.308	542188.782	5057.000000
464123.077	542188.782	5054.000000
464153.846	542188.782	5046.000000
464184.615	542188.782	5047.000000
464215.385	542188.782	5041.000000
464246.154	542188.782	5041.000000
464276.923	542188.782	5041.000000
464307.692	542188.782	5039.000000
464338.462	542188.782	5020.000000
464461.538	542188.782	4988.000000
464492.308	542188.782	4985.000000
464861.538	542188.782	4684.000000
464892.308	542188.782	4678.000000
464923.077	542188.782	4663.000000
464953.846	542188.782	4654.000000
464984.615	542188.782	4637.000000
465015.385	542188.782	4614.000000
465046.154	542188.782	4605.000000
465076.923	542188.782	4595.000000
465107.692	542188.782	4580.000000
465138.462	542188.782	4568.000000
465169.231	542188.782	4552.000000
465200.000	542188.782	4540.000000
465230.769	542188.782	4528.000000
465261.538	542188.782	4526.000000
465292.308	542188.782	4515.000000
465323.077	542188.782	4497.000000
465353.846	542188.782	4474.000000
465384.615	542188.782	4476.000000
465415.385	542188.782	4475.000000
465446.154	542188.782	4472.000000
465476.923	542188.782	4475.000000
465507.692	542188.782	4474.000000
465538.462	542188.782	4471.000000
465569.231	542188.782	4474.000000
465600.000	542188.782	4471.000000
465630.769	542188.782	4465.000000
465661.538	542188.782	4455.000000
465692.308	542188.782	4450.000000
465723.077	542188.782	4458.000000
465753.846	542188.782	4464.000000
465784.615	542188.782	4459.000000
465815.385	542188.782	4453.000000
465846.154	542188.782	4454.000000
465876.923	542188.782	4457.000000
465907.692	542188.782	4464.000000
466553.846	542188.782	4453.000000
466584.615	542188.782	4448.000000
466615.385	542188.782	4444.000000
466646.154	542188.782	4439.000000
466676.923	542188.782	4437.000000
466707.692	542188.782	4438.000000
466738.462	542188.782	4438.000000
466769.231	542188.782	4434.000000
466800.000	542188.782	4426.000000
466830.769	542188.782	4417.000000
466861.538	542188.782	4417.000000
466892.308	542188.782	4406.000000
466923.077	542188.782	4400.000000
466953.846	542188.782	4394.000000
466984.615	542188.782	4387.000000
467015.385	542188.782	4379.000000
467046.154	542188.782	4373.000000
467076.923	542188.782	4369.000000
467107.692	542188.782	4366.000000
468153.846	542188.782	4342.000000
468184.615	542188.782	4349.000000
468215.385	542188.782	4363.000000
468246.154	542188.782	4365.000000
468276.923	542188.782	4367.000000
468307.692	542188.782	4371.000000
468338.462	542188.782	4373.000000
468369.231	542188.782	4366.000000
468400.000	542188.782	4363.000000
468430.769	542188.782	4366.000000
468461.538	542188.782	4371.000000
468492.308	542188.782	4356.000000
468523.077	542188.782	4342.000000
468553.846	542188.782	4332.000000
468584.615	542188.782	4306.000000
468615.385	542188.782	4295.000000
468646.154	542188.782	4298.000000
468676.923	542188.782	4295.000000
468707.692	542188.782	4295.000000
468738.462	542188.782	4292.000000
468769.231	542188.782	4285.000000
468800.000	542188.782	4273.000000
468830.769	542188.782	4267.000000
468861.538	542188.782	4264.000000
468892.308	542188.782	4267.000000
468923.077	542188.782	4264.000000
468953.846	542188.782	4263.000000
468984.615	542188.782	4267.000000
469015.385	542188.782	4268.000000
469046.154	542188.782	4249.000000
469076.923	542188.782	4238.000000
469107.692	542188.782	4229.000000
469138.462	542188.782	4204.000000
464492.308	542219.562	4973.000000
464861.538	542219.562	4686.000000
464892.308	542219.562	4671.000000
464923.077	542219.562	4657.000000
464953.846	542219.562	4648.000000
464984.615	542219.562	4628.000000
465015.385	542219.562	4611.000000
465046.154	542219.562	4601.000000
465076.923	542219.562	4588.000000
465107.692	542219.562	4574.000000
465138.462	542219.562	4560.000000
465169.231	542219.562	4546.000000
465200.000	542219.562	4537.000000
465230.769	542219.562	4524.000000
465261.538	542219.562	4518.000000
465292.308	542219.562	4505.000000
465323.077	542219.562	4479.000000
465353.846	542219.562	4473.000000
465384.615	542219.562	4471.000000
465415.385	542219.562	4475.000000
465446.154	542219.562	4472.000000
465476.923	542219.562	4468.000000
465507.692	542219.562	4467.000000
465538.462	542219.562	4462.000000
465569.231	542219.562	4460.000000
465600.000	542219.562	4464.000000
465630.769	542219.562	4465.000000
465661.538	542219.562	4455.000000
465692.308	542219.562	4447.000000
465723.077	542219.562	4448.000000
465753.846	542219.562	4453.000000
465784.615	542219.562	4454.000000
465815.385	542219.562	4451.000000
465846.154	542219.562	4453.000000
465876.923	542219.562	4453.000000
465907.692	542219.562	4453.000000
465938.462	542219.562	4456.000000
466584.615	542219.562	4445.000000
466615.385	542219.562	4439.000000
466646.154	542219.562	4433.000000
466676.923	542219.562	4427.000000
466707.692	542219.562	4429.000000
466738.462	542219.562	4432.000000
466769.231	542219.562	4434.000000
466800.000	542219.562	4420.000000
466830.769	542219.562	4406.000000
466861.538	542219.562	4400.000000
466892.308	542219.562	4396.000000
466923.077	542219.562	4389.000000
466953.846	542219.562	4386.000000
466984.615	542219.562	4382.000000
467015.385	542219.562	4377.000000
467046.154	542219.562	4375.000000
467076.923	542219.562	4369.000000
467107.692	542219.562	4368.000000
467138.462	542219.562	4363.000000
467169.231	542219.562	4353.000000
468153.846	542219.562	4318.000000
468184.615	542219.562	4332.000000
468215.385	542219.562	4342.000000
468246.154	542219.562	4337.000000
468276.923	542219.562	4340.000000
468307.692	542219.562	4348.000000
468338.462	542219.562	4347.000000
468369.231	542219.562	4346.000000
468400.000	542219.562	4346.000000
468430.769	542219.562	4352.000000
468461.538	542219.562	4358.000000
468492.308	542219.562	4348.000000
468523.077	542219.562	4333.000000
468553.846	542219.562	4322.000000
468584.615	542219.562	4307.000000
468615.385	542219.562	4298.000000
468646.154	542219.562	4296.000000
468676.923	542219.562	4287.000000
468769.231	542219.562	4273.000000
468800.000	542219.562	4262.000000
468861.538	542219.562	4252.000000
468892.308	542219.562	4251.000000
468923.077	542219.562	4253.000000
468953.846	542219.562	4256.000000
468984.615	542219.562	4258.000000
469015.385	542219.562	4260.000000
469046.154	542219.562	4247.000000
469076.923	542219.562	4241.000000
469107.692	542219.562	4229.000000
469138.462	542219.562	4215.000000
464892.308	542250.342	4663.000000
464923.077	542250.342	4657.000000
464953.846	542250.342	4644.000000
464984.615	542250.342	4623.000000
465015.385	542250.342	4611.000000
465046.154	542250.342	4599.000000
465076.923	542250.342	4584.000000
465107.692	542250.342	4567.000000
465138.462	542250.342	4553.000000
465169.231	542250.342	4538.000000
465200.000	542250.342	4534.000000
465230.769	542250.342	4518.000000
465261.538	542250.342	4508.000000
465292.308	542250.342	4500.000000
465323.077	542250.342	4484.000000
465353.846	542250.342	4473.000000
465384.615	542250.342	4469.000000
465415.385	542250.342	4471.000000
465446.154	542250.342	4475.000000
465476.923	542250.342	4466.000000
465507.692	542250.342	4458.000000
465692.308	542250.342	4443.000000
465723.077	542250.342	4440.000000
465753.846	542250.342	4446.000000
465784.615	542250.342	4448.000000
465815.385	542250.342	4447.000000
465846.154	542250.342	4448.000000
465876.923	542250.342	4451.000000
465907.692	542250.342	4448.000000
465938.462	542250.342	4447.000000
466584.615	542250.342	4439.000000
466615.385	542250.342	4434.000000
466646.154	542250.342	4429.000000
466676.923	542250.342	4423.000000
466707.692	542250.342	4422.000000
466738.462	542250.342	4423.000000
466769.231	542250.342	4420.000000
466800.000	542250.342	4411.000000
466830.769	542250.342	4395.000000
466861.538	542250.342	4386.000000
466892.308	542250.342	4381.000000
466923.077	542250.342	4377.000000
466953.846	542250.342	4375.000000
466984.615	542250.342	4377.000000
467015.385	542250.342	4372.000000
467046.154	542250.342	4370.000000
467076.923	542250.342	4365.000000
467107.692	542250.342	4365.000000
467138.462	542250.342	4361.000000
467169.231	542250.342	4353.000000
468184.615	542250.342	4309.000000
468215.385	542250.342	4325.000000
468246.154	542250.342	4320.000000
468276.923	542250.342	4322.000000
468307.692	542250.342	4324.000000
468338.462	542250.342	4329.000000
468369.231	542250.342	4327.000000
468400.000	542250.342	4333.000000
468430.769	542250.342	4335.000000
468461.538	542250.342	4343.000000
468492.308	542250.342	4338.000000
468523.077	542250.342	4328.000000
468553.846	542250.342	4312.000000
468584.615	542250.342	4305.000000
468615.385	542250.342	4299.000000
468646.154	542250.342	4290.000000
468676.923	542250.342	4285.000000
468707.692	542250.342	4282.000000
468738.462	542250.342	4277.000000
468769.231	542250.342	4264.000000
468800.000	542250.342	4252.000000
468830.769	542250.342	4247.000000
468861.538	542250.342	4247.000000
468892.308	542250.342	4239.000000
468923.077	542250.342	4240.000000
468953.846	542250.342	4249.000000
468984.615	542250.342	4251.000000
469015.385	542250.342	4244.000000
469046.154	542250.342	4241.000000
469076.923	542250.342	4238.000000
469107.692	542250.342	4229.000000
469138.462	542250.342	4222.000000
464553.846	542281.122	4958.000000
464861.538	542281.122	4666.000000
464892.308	542281.122	4660.000000
464923.077	542281.122	4651.000000
464953.846	542281.122	4639.000000
464984.615	542281.122	4616.000000
465015.385	542281.122	4606.000000
465046.154	542281.122	4595.000000
465076.923	542281.122	4580.000000
465107.692	542281.122	4565.000000
465138.462	542281.122	4548.000000
465169.231	542281.122	4532.000000
465200.000	542281.122	4524.000000
465230.769	542281.122	4512.000000
465261.538	542281.122	4502.000000
465292.308	542281.122	4497.000000
465323.077	542281.122	4486.000000
465353.846	542281.122	4474.000000
465384.615	542281.122	4469.000000
465415.385	542281.122	4463.000000
465446.154	542281.122	4465.000000
465476.923	542281.122	4456.000000
465507.692	542281.122	4445.000000
465846.154	542281.122	4441.000000
465876.923	542281.122	4444.000000
465907.692	542281.122	4441.000000
465938.462	542281.122	4444.000000
465969.231	542281.122	4444.000000
466646.154	542281.122	4422.000000
466676.923	542281.122	4417.000000
466707.692	542281.122	4417.000000
466769.231	542281.122	4407.000000
466800.000	542281.122	4397.000000
466830.769	542281.122	4384.000000
466861.538	542281.122	4373.000000
466892.308	542281.122	4369.000000
466923.077	542281.122	4365.000000
466953.846	542281.122	4364.000000
466984.615	542281.122	4362.000000
467015.385	542281.122	4359.000000
467046.154	542281.122	4359.000000
467076.923	542281.122	4358.000000
467107.692	542281.122	4359.000000
467138.462	542281.122	4357.000000
467169.231	542281.122	4347.000000
467200.000	542281.122	4336.000000
467230.769	542281.122	4329.000000
468215.385	542281.122	4302.000000
468246.154	542281.122	4303.000000
468276.923	542281.122	4293.000000
468307.692	542281.122	4313.000000
468338.462	542281.122	4307.000000
468369.231	542281.122	4312.000000
468400.000	542281.122	4317.000000
468430.769	542281.122	4320.000000
468461.538	542281.122	4327.000000
468492.308	542281.122	4328.000000
468523.077	542281.122	4321.000000
468553.846	542281.122	4312.000000
468584.615	542281.122	4296.000000
468615.385	542281.122	4288.000000
468646.154	542281.122	4279.000000
468676.923	542281.122	4276.000000
468707.692	542281.122	4276.000000
468738.462	542281.122	4275.000000
468769.231	542281.122	4256.000000
468800.000	542281.122	4245.000000
468830.769	542281.122	4243.000000
468861.538	542281.122	4245.000000
468892.308	542281.122	4236.000000
468923.077	542281.122	4231.000000
468953.846	542281.122	4238.000000
468984.615	542281.122	4232.000000
469015.385	542281.122	4225.000000
469046.154	542281.122	4229.000000
469076.923	542281.122	4227.000000
469107.692	542281.122	4224.000000
469138.462	542281.122	4224.000000
469169.231	542281.122	4214.000000
469200.000	542281.122	4194.000000
469230.769	542281.122	4185.000000
464861.538	542311.902	4660.000000
464892.308	542311.902	4656.000000
464923.077	542311.902	4640.000000
464953.846	542311.902	4623.000000
464984.615	542311.902	4613.000000
465015.385	542311.902	4601.000000
465046.154	542311.902	4593.000000
465076.923	542311.902	4579.000000
465107.692	542311.902	4569.000000
465138.462	542311.902	4553.000000
465169.231	542311.902	4533.000000
465200.000	542311.902	4516.000000
465230.769	542311.902	4509.000000
465261.538	542311.902	4503.000000
465292.308	542311.902	4498.000000
465323.077	542311.902	4488.000000
465353.846	542311.902	4477.000000
465384.615	542311.902	4466.000000
465415.385	542311.902	4458.000000
465446.154	542311.902	4456.000000
465476.923	542311.902	4448.000000
465507.692	542311.902	4434.000000
465876.923	542311.902	4434.000000
465907.692	542311.902	4434.000000
465938.462	542311.902	4438.000000
465969.231	542311.902	4439.000000
466646.154	542311.902	4417.000000
466676.923	542311.902	4415.000000
466707.692	542311.902	4414.000000
466738.462	542311.902	4406.000000
466769.231	542311.902	4397.000000
466800.000	542311.902	4385.000000
466830.769	542311.902	4377.000000
466861.538	542311.902	4368.000000
466892.308	542311.902	4361.000000
466923.077	542311.902	4355.000000
466984.615	542311.902	4351.000000
467015.385	542311.902	4347.000000
467046.154	542311.902	4348.000000
467076.923	542311.902	4351.000000
467107.692	542311.902	4352.000000
467138.462	542311.902	4350.000000
467169.231	542311.902	4342.000000
467200.000	542311.902	4334.000000
467230.769	542311.902	4328.000000
467261.538	542311.902	4323.000000
468246.154	542311.902	4278.000000
468276.923	542311.902	4269.000000
468307.692	542311.902	4280.000000
468338.462	542311.902	4285.000000
468369.231	542311.902	4291.000000
468400.000	542311.902	4300.000000
468430.769	542311.902	4304.000000
468461.538	542311.902	4307.000000
468492.308	542311.902	4311.000000
468523.077	542311.902	4305.000000
468553.846	542311.902	4294.000000
468584.615	542311.902	4284.000000
468615.385	542311.902	4274.000000
468646.154	542311.902	4268.000000
468676.923	542311.902	4260.000000
468707.692	542311.902	4261.000000
468738.462	542311.902	4265.000000
468769.231	542311.902	4248.000000
468800.000	542311.902	4235.000000
468830.769	542311.902	4237.000000
468861.538	542311.902	4237.000000
468892.308	542311.902	4233.000000
468923.077	542311.902	4223.000000
468953.846	542311.902	4222.000000
468984.615	542311.902	4220.000000
469046.154	542311.902	4218.000000
469076.923	542311.902	4216.000000
469107.692	542311.902	4216.000000
469138.462	542311.902	4223.000000
469169.231	542311.902	4219.000000
469200.000	542311.902	4211.000000
469230.769	542311.902	4197.000000
464861.538	542342.681	4658.000000
464892.308	542342.681	4646.000000
464923.077	542342.681	4633.000000
464953.846	542342.681	4624.000000
464984.615	542342.681	4610.000000
465015.385	542342.681	4599.000000
465046.154	542342.681	4590.000000
465076.923	542342.681	4581.000000
465107.692	542342.681	4574.000000
465138.462	542342.681	4560.000000
465169.231	542342.681	4537.000000
465200.000	542342.681	4524.000000
465230.769	542342.681	4510.000000
465261.538	542342.681	4501.000000
465292.308	542342.681	4495.000000
465323.077	542342.681	4489.000000
465353.846	542342.681	4480.000000
465384.615	542342.681	4467.000000
465415.385	542342.681	4455.000000
465446.154	542342.681	4453.000000
465476.923	542342.681	4445.000000
465507.692	542342.681	4439.000000
465876.923	542342.681	4428.000000
465907.692	542342.681	4430.000000
465938.462	542342.681	4431.000000
465969.231	542342.681	4433.000000
466461.538	542342.681	4464.000000
466646.154	542342.681	4413.000000
466676.923	542342.681	4412.000000
466707.692	542342.681	4411.000000
466738.462	542342.681	4404.000000
466769.231	542342.681	4391.000000
466800.000	542342.681	4385.000000
466830.769	542342.681	4375.000000
466861.538	542342.681	4364.000000
466892.308	542342.681	4354.000000
466923.077	542342.681	4349.000000
467138.462	542342.681	4340.000000
467169.231	542342.681	4340.000000
467200.000	542342.681	4340.000000
467230.769	542342.681	4331.000000
467261.538	542342.681	4321.000000
468246.154	542342.681	4263.000000
468276.923	542342.681	4260.000000
468307.692	542342.681	4267.000000
468338.462	542342.681	4269.000000
468369.231	542342.681	4273.000000
468400.000	542342.681	4281.000000
468430.769	542342.681	4288.000000
468461.538	542342.681	4284.000000
468492.308	542342.681	4285.000000
468523.077	542342.681	4283.000000
468553.846	542342.681	4280.000000
468584.615	542342.681	4282.000000
468615.385	542342.681	4277.000000
468646.154	542342.681	4258.000000
468676.923	542342.681	4249.000000
468707.692	542342.681	4247.000000
468738.462	542342.681	4255.000000
468769.231	542342.681	4240.000000
468800.000	542342.681	4227.000000
468830.769	542342.681	4223.000000
468861.538	542342.681	4225.000000
468892.308	542342.681	4223.000000
468923.077	542342.681	4217.000000
468953.846	542342.681	4212.000000
469107.692	542342.681	4212.000000
469138.462	542342.681	4216.000000
469169.231	542342.681	4221.000000
469200.000	542342.681	4218.000000
469230.769	542342.681	4207.000000
464861.538	542373.461	4659.000000
464892.308	542373.461	4645.000000
464923.077	542373.461	4629.000000
464953.846	542373.461	4628.000000
464984.615	542373.461	4605.000000
465015.385	542373.461	4583.000000
465046.154	542373.461	4583.000000
465076.923	542373.461	4576.000000
465107.692	542373.461	4571.000000
465138.462	542373.461	4560.000000
465169.231	542373.461	4541.000000
465200.000	542373.461	4528.000000
465230.769	542373.461	4515.000000
465261.538	542373.461	4496.000000
465292.308	542373.461	4488.000000
465323.077	542373.461	4485.000000
465353.846	542373.461	4480.000000
465384.615	542373.461	4470.000000
465415.385	542373.461	4457.000000
465446.154	542373.461	4455.000000
465476.923	542373.461	4441.000000
465507.692	542373.461	4440.000000
465938.462	542373.461	4422.000000
465969.231	542373.461	4422.000000
466000.000	542373.461	4422.000000
466246.154	542373.461	4551.000000
466276.923	542373.461	4546.000000
466307.692	542373.461	4543.000000
466338.462	542373.461	4527.000000
466369.231	542373.461	4527.000000
466400.000	542373.461	4513.000000
466430.769	542373.461	4501.000000
466461.538	542373.461	4482.000000
466646.154	542373.461	4405.000000
466676.923	542373.461	4402.000000
466707.692	542373.461	4404.000000
466738.462	542373.461	4397.000000
466769.231	542373.461	4390.000000
466800.000	542373.461	4381.000000
466830.769	542373.461	4372.000000
466861.538	542373.461	4356.000000
466892.308	542373.461	4346.000000
466923.077	542373.461	4342.000000
467107.692	542373.461	4332.000000
467138.462	542373.461	4330.000000
467261.538	542373.461	4325.000000
467292.308	542373.461	4317.000000
468276.923	542373.461	4245.000000
468307.692	542373.461	4250.000000
468338.462	542373.461	4251.000000
468369.231	542373.461	4250.000000
468400.000	542373.461	4257.000000
468430.769	542373.461	4263.000000
468461.538	542373.461	4259.000000
468492.308	542373.461	4264.000000
468523.077	542373.461	4265.000000
468553.846	542373.461	4264.000000
468584.615	542373.461	4273.000000
468615.385	542373.461	4272.000000
468646.154	542373.461	4251.000000
468676.923	542373.461	4235.000000
468707.692	542373.461	4232.000000
468738.462	542373.461	4231.000000
468769.231	542373.461	4231.000000
468800.000	542373.461	4220.000000
468830.769	542373.461	4217.000000
468861.538	542373.461	4216.000000
468892.308	542373.461	4220.000000
468923.077	542373.461	4215.000000
468953.846	542373.461	4210.000000
469076.923	542373.461	4204.000000
469107.692	542373.461	4207.000000
469138.462	542373.461	4212.000000
469169.231	542373.461	4218.000000
469200.000	542373.461	4219.000000
469230.769	542373.461	4213.000000
469261.538	542373.461	4203.000000
464892.308	542404.241	4645.000000
464923.077	542404.241	4631.000000
464953.846	542404.241	4624.000000
464984.615	542404.241	4600.000000
465015.385	542404.241	4585.000000
465046.154	542404.241	4577.000000
465076.923	542404.241	4571.000000
465107.692	542404.241	4565.000000
465138.462	542404.241	4558.000000
465169.231	542404.241	4544.000000
465200.000	542404.241	4533.000000
465230.769	542404.241	4525.000000
465261.538	542404.241	4503.000000
465292.308	542404.241	4487.000000
465323.077	542404.241	4485.000000
465353.846	542404.241	4480.000000
465384.615	542404.241	4467.000000
465415.385	542404.241	4460.000000
465446.154	542404.241	4455.000000
465476.923	542404.241	4441.000000
465507.692	542404.241	4434.000000
465969.231	542404.241	4414.000000
466000.000	542404.241	4413.000000
466246.154	542404.241	4534.000000
466276.923	542404.241	4540.000000
466307.692	542404.241	4541.000000
466338.462	542404.241	4536.000000
466369.231	542404.241	4536.000000
466400.000	542404.241	4520.000000
466430.769	542404.241	4514.000000
466461.538	542404.241	4493.000000
466646.154	542404.241	4396.000000
466676.923	542404.241	4396.000000
466707.692	542404.241	4394.000000
466738.462	542404.241	4388.000000
466769.231	542404.241	4382.000000
466800.000	542404.241	4373.000000
466830.769	542404.241	4363.000000
466861.538	542404.241	4353.000000
466892.308	542404.241	4343.000000
466923.077	542404.241	4339.000000
467169.231	542404.241	4328.000000
467200.000	542404.241	4329.000000
467230.769	542404.241	4326.000000
467261.538	542404.241	4322.000000
467292.308	542404.241	4315.000000
468307.692	542404.241	4224.000000
468338.462	542404.241	4228.000000
468369.231	542404.241	4229.000000
468400.000	542404.241	4233.000000
468430.769	542404.241	4236.000000
468461.538	542404.241	4240.000000
468492.308	542404.241	4248.000000
468523.077	542404.241	4250.000000
468553.846	542404.241	4246.000000
468584.615	542404.241	4252.000000
468615.385	542404.241	4259.000000
468646.154	542404.241	4228.000000
468676.923	542404.241	4219.000000
468707.692	542404.241	4210.000000
468738.462	542404.241	4210.000000
468769.231	542404.241	4211.000000
468800.000	542404.241	4212.000000
468830.769	542404.241	4211.000000
468861.538	542404.241	4213.000000
468892.308	542404.241	4218.000000
468923.077	542404.241	4216.000000
469138.462	542404.241	4205.000000
469169.231	542404.241	4214.000000
469200.000	542404.241	4219.000000
469230.769	542404.241	4217.000000
469261.538	542404.241	4211.000000
469292.308	542404.241	4208.000000
464953.846	542435.021	4618.000000
464984.615	542435.021	4598.000000
465015.385	542435.021	4584.000000
465046.154	542435.021	4579.000000
465076.923	542435.021	4569.000000
465107.692	542435.021	4562.000000
465138.462	542435.021	4556.000000
465169.231	542435.021	4546.000000
465200.000	542435.021	4536.000000
465230.769	542435.021	4534.000000
465261.538	542435.021	4515.000000
465292.308	542435.021	4497.000000
465323.077	542435.021	4494.000000
465353.846	542435.021	4483.000000
465384.615	542435.021	4467.000000
465415.385	542435.021	4457.000000
465446.154	542435.021	4452.000000
465476.923	542435.021	4440.000000
465507.692	542435.021	4430.000000
466246.154	542435.021	4504.000000
466276.923	542435.021	4524.000000
466307.692	542435.021	4536.000000
466338.462	542435.021	4536.000000
466369.231	542435.021	4540.000000
466400.000	542435.021	4526.000000
466430.769	542435.021	4511.000000
466461.538	542435.021	4500.000000
466492.308	542435.021	4478.000000
466646.154	542435.021	4394.000000
466676.923	542435.021	4394.000000
466707.692	542435.021	4386.000000
466738.462	542435.021	4375.000000
466769.231	542435.021	4368.000000
466800.000	542435.021	4364.000000
466830.769	542435.021	4358.000000
466861.538	542435.021	4349.000000
466892.308	542435.021	4341.000000
466923.077	542435.021	4338.000000
466953.846	542435.021	4334.000000
466984.615	542435.021	4329.000000
467046.154	542435.021	4330.000000
467138.462	542435.021	4325.000000
467200.000	542435.021	4321.000000
467230.769	542435.021	4320.000000
467261.538	542435.021	4313.000000
467292.308	542435.021	4310.000000
468338.462	542435.021	4208.000000
468369.231	542435.021	4213.000000
468400.000	542435.021	4213.000000
468430.769	542435.021	4214.000000
468461.538	542435.021	4224.000000
468492.308	542435.021	4231.000000
468523.077	542435.021	4224.000000
468553.846	542435.021	4218.000000
468584.615	542435.021	4238.000000
468615.385	542435.021	4244.000000
468646.154	542435.021	4207.000000
468676.923	542435.021	4202.000000
468707.692	542435.021	4203.000000
468738.462	542435.021	4202.000000
468769.231	542435.021	4205.000000
468800.000	542435.021	4205.000000
468830.769	542435.021	4207.000000
468861.538	542435.021	4212.000000
468892.308	542435.021	4216.000000
469169.231	542435.021	4208.000000
469200.000	542435.021	4218.000000
469230.769	542435.021	4222.000000
469261.538	542435.021	4221.000000
464984.615	542465.800	4599.000000
465015.385	542465.800	4586.000000
465046.154	542465.800	4580.000000
465076.923	542465.800	4570.000000
465107.692	542465.800	4558.000000
465138.462	542465.800	4554.000000
465169.231	542465.800	4547.000000
465200.000	542465.800	4533.000000
465230.769	542465.800	4530.000000
465261.538	542465.800	4521.000000
465292.308	542465.800	4513.000000
465323.077	542465.800	4504.000000
465353.846	542465.800	4499.000000
465384.615	542465.800	4472.000000
465415.385	542465.800	4452.000000
465446.154	542465.800	4451.000000
465476.923	542465.800	4441.000000
465507.692	542465.800	4430.000000
466123.077	542465.800	4433.000000
466215.385	542465.800	4497.000000
466246.154	542465.800	4503.000000
466276.923	542465.800	4518.000000
466307.692	542465.800	4531.000000
466338.462	542465.800	4531.000000
466369.231	542465.800	4529.000000
466400.000	542465.800	4514.000000
466430.769	542465.800	4506.000000
466461.538	542465.800	4498.000000
466553.846	542465.800	4452.000000
466615.385	542465.800	4414.000000
466646.154	542465.800	4394.000000
466676.923	542465.800	4390.000000
466707.692	542465.800	4377.000000
466738.462	542465.800	4360.000000
466769.231	542465.800	4356.000000
466800.000	542465.800	4355.000000
466830.769	542465.800	4352.000000
466861.538	542465.800	4343.000000
466892.308	542465.800	4339.000000
466923.077	542465.800	4337.000000
466953.846	542465.800	4335.000000
466984.615	542465.800	4331.000000
467107.692	542465.800	4324.000000
467138.462	542465.800	4321.000000
467169.231	542465.800	4314.000000
467200.000	542465.800	4314.000000
467230.769	542465.800	4311.000000
467261.538	542465.800	4307.000000
467292.308	542465.800	4305.000000
468369.231	542465.800	4202.000000
468400.000	542465.800	4202.000000
468430.769	542465.800	4198.000000
468461.538	542465.800	4208.000000
468492.308	542465.800	4211.000000
468523.077	542465.800	4207.000000
468553.846	542465.800	4184.000000
468584.615	542465.800	4183.000000
468615.385	542465.800	4202.000000
468646.154	542465.800	4173.000000
468676.923	542465.800	4182.000000
468707.692	542465.800	4182.000000
468738.462	542465.800	4185.000000
468769.231	542465.800	4188.000000
468800.000	542465.800	4201.000000
468830.769	542465.800	4205.000000
468861.538	542465.800	4209.000000
468892.308	542465.800	4206.000000
469169.231	542465.800	4194.000000
469200.000	542465.800	4209.000000
469230.769	542465.800	4220.000000
469261.538	542465.800	4225.000000
469292.308	542465.800	4227.000000
464984.615	542496.580	4609.000000
465015.385	542496.580	4596.000000
465046.154	542496.580	4585.000000
465076.923	542496.580	4571.000000
465107.692	542496.580	4556.000000
465138.462	542496.580	4552.000000
465169.231	542496.580	4545.000000
465200.000	542496.580	4525.000000
465230.769	542496.580	4521.000000
465261.538	542496.580	4518.000000
465292.308	542496.580	4514.000000
465323.077	542496.580	4505.000000
465353.846	542496.580	4497.000000
465384.615	542496.580	4475.000000
465415.385	542496.580	4456.000000
465446.154	542496.580	4452.000000
465476.923	542496.580	4441.000000
465507.692	542496.580	4429.000000
466092.308	542496.580	4407.000000
466123.077	542496.580	4420.000000
466153.846	542496.580	4431.000000
466184.615	542496.580	4444.000000
466215.385	542496.580	4469.000000
466246.154	542496.580	4483.000000
466276.923	542496.580	4492.000000
466307.692	542496.580	4492.000000
466338.462	542496.580	4521.000000
466369.231	542496.580	4514.000000
466400.000	542496.580	4510.000000
466430.769	542496.580	4504.000000
466461.538	542496.580	4499.000000
466492.308	542496.580	4479.000000
466523.077	542496.580	4465.000000
466553.846	542496.580	4457.000000
466584.615	542496.580	4449.000000
466615.385	542496.580	4424.000000
466646.154	542496.580	4397.000000
466676.923	542496.580	4387.000000
466707.692	542496.580	4364.000000
466738.462	542496.580	4350.000000
466769.231	542496.580	4345.000000
466800.000	542496.580	4344.000000
466830.769	542496.580	4343.000000
466861.538	542496.580	4337.000000
466892.308	542496.580	4338.000000
466923.077	542496.580	4337.000000
466953.846	542496.580	4334.000000
466984.615	542496.580	4331.000000
467107.692	542496.580	4317.000000
467138.462	542496.580	4310.000000
467169.231	542496.580	4306.000000
467200.000	542496.580	4308.000000
467230.769	542496.580	4308.000000
468369.231	542496.580	4182.000000
468400.000	542496.580	4185.000000
468430.769	542496.580	4187.000000
468461.538	542496.580	4190.000000
468492.308	542496.580	4193.000000
468523.077	542496.580	4190.000000
468553.846	542496.580	4166.000000
468584.615	542496.580	4157.000000
468615.385	542496.580	4159.000000
468646.154	542496.580	4155.000000
468676.923	542496.580	4160.000000
468707.692	542496.580	4165.000000
468738.462	542496.580	4163.000000
468769.231	542496.580	4177.000000
468800.000	542496.580	4198.000000
468830.769	542496.580	4204.000000
468861.538	542496.580	4204.000000
468892.308	542496.580	4200.000000
469169.231	542496.580	4179.000000
469200.000	542496.580	4197.000000
469230.769	542496.580	4211.000000
469261.538	542496.580	4220.000000
469292.308	542496.580	4227.000000
469323.077	542496.580	4228.000000
469353.846	542496.580	4231.000000
465015.385	542527.360	4604.000000
465046.154	542527.360	4591.000000
465076.923	542527.360	4573.000000
465107.692	542527.360	4554.000000
465138.462	542527.360	4552.000000
465169.231	542527.360	4533.000000
465200.000	542527.360	4520.000000
465230.769	542527.360	4521.000000
465261.538	542527.360	4516.000000
465292.308	542527.360	4513.000000
465323.077	542527.360	4502.000000
465353.846	542527.360	4492.000000
465384.615	542527.360	4473.000000
465415.385	542527.360	4461.000000
465446.154	542527.360	4455.000000
465476.923	542527.360	4435.000000
465507.692	542527.360	4422.000000
466123.077	542527.360	4408.000000
466153.846	542527.360	4415.000000
466184.615	542527.360	4419.000000
466215.385	542527.360	4433.000000
466246.154	542527.360	4438.000000
466276.923	542527.360	4454.000000
466307.692	542527.360	4454.000000
466338.462	542527.360	4480.000000
466369.231	542527.360	4502.000000
466400.000	542527.360	4501.000000
466430.769	542527.360	4498.000000
466461.538	542527.360	4494.000000
466492.308	542527.360	4478.000000
466523.077	542527.360	4465.000000
466553.846	542527.360	4458.000000
466584.615	542527.360	4447.000000
466615.385	542527.360	4432.000000
466646.154	542527.360	4415.000000
466676.923	542527.360	4389.000000
466707.692	542527.360	4363.000000
466738.462	542527.360	4344.000000
466769.231	542527.360	4334.000000
466800.000	542527.360	4330.000000
466830.769	542527.360	4330.000000
466861.538	542527.360	4330.000000
466892.308	542527.360	4333.000000
466923.077	542527.360	4331.000000
466953.846	542527.360	4327.000000
466984.615	542527.360	4325.000000
467138.462	542527.360	4305.000000
467169.231	542527.360	4302.000000
467200.000	542527.360	4306.000000
467230.769	542527.360	4308.000000
467261.538	542527.360	4309.000000
467292.308	542527.360	4308.000000
468400.000	542527.360	4160.000000
468430.769	542527.360	4171.000000
468461.538	542527.360	4175.000000
468492.308	542527.360	4172.000000
468523.077	542527.360	4168.000000
468553.846	542527.360	4155.000000
468584.615	542527.360	4148.000000
468615.385	542527.360	4148.000000
468646.154	542527.360	4143.000000
468676.923	542527.360	4148.000000
468707.692	542527.360	4151.000000
468738.462	542527.360	4157.000000
468769.231	542527.360	4172.000000
468800.000	542527.360	4194.000000
468830.769	542527.360	4199.000000
468861.538	542527.360	4199.000000
468892.308	542527.360	4194.000000
468923.077	542527.360	4182.000000
469169.231	542527.360	4167.000000
469200.000	542527.360	4186.000000
469230.769	542527.360	4201.000000
469261.538	542527.360	4209.000000
469292.308	542527.360	4221.000000
469323.077	542527.360	4232.000000
469353.846	542527.360	4238.000000
465046.154	542558.140	4596.000000
465076.923	542558.140	4573.000000
465107.692	542558.140	4557.000000
465138.462	542558.140	4548.000000
465169.231	542558.140	4528.000000
465200.000	542558.140	4522.000000
465230.769	542558.140	4524.000000
465261.538	542558.140	4519.000000
465292.308	542558.140	4506.000000
465323.077	542558.140	4499.000000
465353.846	542558.140	4490.000000
465384.615	542558.140	4476.000000
465415.385	542558.140	4465.000000
465446.154	542558.140	4456.000000
465476.923	542558.140	4429.000000
465507.692	542558.140	4411.000000
465538.462	542558.140	4411.000000
466123.077	542558.140	4395.000000
466153.846	542558.140	4398.000000
466184.615	542558.140	4398.000000
466215.385	542558.140	4406.000000
466246.154	542558.140	4414.000000
466276.923	542558.140	4414.000000
466307.692	542558.140	4428.000000
466338.462	542558.140	4450.000000
466369.231	542558.140	4487.000000
466400.000	542558.140	4494.000000
466430.769	542558.140	4487.000000
466461.538	542558.140	4485.000000
466492.308	542558.140	4476.000000
466523.077	542558.140	4460.000000
466553.846	542558.140	4453.000000
466584.615	542558.140	4441.000000
466615.385	542558.140	4430.000000
466646.154	542558.140	4421.000000
466676.923	542558.140	4399.000000
466707.692	542558.140	4362.000000
466738.462	542558.140	4347.000000
466769.231	542558.140	4328.000000
466800.000	542558.140	4321.000000
466830.769	542558.140	4322.000000
466861.538	542558.140	4324.000000
466892.308	542558.140	4328.000000
466923.077	542558.140	4326.000000
466953.846	542558.140	4322.000000
466984.615	542558.140	4319.000000
467015.385	542558.140	4315.000000
467107.692	542558.140	4312.000000
467138.462	542558.140	4305.000000
467169.231	542558.140	4304.000000
467200.000	542558.140	4304.000000
467230.769	542558.140	4307.000000
467261.538	542558.140	4307.000000
467292.308	542558.140	4305.000000
468430.769	542558.140	4148.000000
468461.538	542558.140	4156.000000
468492.308	542558.140	4153.000000
468523.077	542558.140	4148.000000
468553.846	542558.140	4141.000000
468584.615	542558.140	4138.000000
468615.385	542558.140	4138.000000
468646.154	542558.140	4131.000000
468676.923	542558.140	4136.000000
468707.692	542558.140	4139.000000
468738.462	542558.140	4150.000000
468769.231	542558.140	4162.000000
468800.000	542558.140	4181.000000
468830.769	542558.140	4186.000000
468861.538	542558.140	4186.000000
468892.308	542558.140	4188.000000
468923.077	542558.140	4189.000000
469169.231	542558.140	4155.000000
469200.000	542558.140	4171.000000
469230.769	542558.140	4187.000000
469261.538	542558.140	4198.000000
469292.308	542558.140	4212.000000
469323.077	542558.140	4228.000000
469353.846	542558.140	4239.000000
469384.615	542558.140	4245.000000
469415.385	542558.140	4249.000000
465046.154	542588.919	4604.000000
465076.923	542588.919	4570.000000
465107.692	542588.919	4561.000000
465138.462	542588.919	4549.000000
465169.231	542588.919	4532.000000
465200.000	542588.919	4525.000000
465230.769	542588.919	4522.000000
465261.538	542588.919	4515.000000
465292.308	542588.919	4501.000000
465323.077	542588.919	4492.000000
465353.846	542588.919	4484.000000
465384.615	542588.919	4480.000000
465415.385	542588.919	4469.000000
465446.154	542588.919	4444.000000
465476.923	542588.919	4422.000000
465507.692	542588.919	4410.000000
465538.462	542588.919	4406.000000
466123.077	542588.919	4373.000000
466153.846	542588.919	4382.000000
466184.615	542588.919	4380.000000
466215.385	542588.919	4382.000000
466246.154	542588.919	4388.000000
466276.923	542588.919	4388.000000
466307.692	542588.919	4403.000000
466338.462	542588.919	4414.000000
466369.231	542588.919	4472.000000
466400.000	542588.919	4477.000000
466430.769	542588.919	4466.000000
466461.538	542588.919	4462.000000
466492.308	542588.919	4470.000000
466523.077	542588.919	4454.000000
466553.846	542588.919	4453.000000
466584.615	542588.919	4445.000000
466615.385	542588.919	4432.000000
466646.154	542588.919	4417.000000
466676.923	542588.919	4393.000000
466707.692	542588.919	4355.000000
466738.462	542588.919	4344.000000
466769.231	542588.919	4326.000000
466800.000	542588.919	4316.000000
466830.769	542588.919	4317.000000
467015.385	542588.919	4311.000000
467107.692	542588.919	4307.000000
467138.462	542588.919	4303.000000
467169.231	542588.919	4300.000000
467200.000	542588.919	4299.000000
467230.769	542588.919	4298.000000
467261.538	542588.919	4298.000000
467292.308	542588.919	4296.000000
468492.308	542588.919	4139.000000
468523.077	542588.919	4130.000000
468553.846	542588.919	4120.000000
468584.615	542588.919	4123.000000
468615.385	542588.919	4127.000000
468646.154	542588.919	4119.000000
468676.923	542588.919	4116.000000
468707.692	542588.919	4124.000000
468738.462	542588.919	4142.000000
468769.231	542588.919	4145.000000
468800.000	542588.919	4157.000000
468830.769	542588.919	4165.000000
468861.538	542588.919	4170.000000
468892.308	542588.919	4189.000000
468923.077	542588.919	4189.000000
468953.846	542588.919	4178.000000
468984.615	542588.919	4175.000000
469015.385	542588.919	4173.000000
469046.154	542588.919	4150.000000
469076.923	542588.919	4143.000000
469107.692	542588.919	4135.000000
469200.000	542588.919	4157.000000
469230.769	542588.919	4171.000000
469261.538	542588.919	4183.000000
469292.308	542588.919	4198.000000
469323.077	542588.919	4217.000000
469353.846	542588.919	4232.000000
469384.615	542588.919	4244.000000
469415.385	542588.919	4249.000000
469446.154	542588.919	4250.000000
469476.923	542588.919	4242.000000
465076.923	542619.699	4573.000000
465107.692	542619.699	4564.000000
465138.462	542619.699	4550.000000
465169.231	542619.699	4534.000000
465200.000	542619.699	4524.000000
465230.769	542619.699	4517.000000
465261.538	542619.699	4507.000000
465292.308	542619.699	4497.000000
465323.077	542619.699	4486.000000
465353.846	542619.699	4477.000000
465384.615	542619.699	4477.000000
465415.385	542619.699	4472.000000
465446.154	542619.699	4448.000000
465476.923	542619.699	4422.000000
465507.692	542619.699	4405.000000
465538.462	542619.699	4398.000000
466215.385	542619.699	4363.000000
466246.154	542619.699	4363.000000
466276.923	542619.699	4365.000000
466307.692	542619.699	4373.000000
466338.462	542619.699	4385.000000
466369.231	542619.699	4455.000000
466400.000	542619.699	4441.000000
466430.769	542619.699	4437.000000
466461.538	542619.699	4434.000000
466492.308	542619.699	4454.000000
466523.077	542619.699	4455.000000
466553.846	542619.699	4457.000000
466584.615	542619.699	4452.000000
466615.385	542619.699	4426.000000
466646.154	542619.699	4385.000000
466676.923	542619.699	4352.000000
466707.692	542619.699	4347.000000
466738.462	542619.699	4338.000000
466769.231	542619.699	4326.000000
466800.000	542619.699	4315.000000
466830.769	542619.699	4309.000000
466861.538	542619.699	4305.000000
466984.615	542619.699	4310.000000
467015.385	542619.699	4307.000000
467107.692	542619.699	4302.000000
467138.462	542619.699	4298.000000
467200.000	542619.699	4294.000000
467230.769	542619.699	4287.000000
467261.538	542619.699	4284.000000
467292.308	542619.699	4280.000000
468523.077	542619.699	4115.000000
468584.615	542619.699	4108.000000
468615.385	542619.699	4111.000000
468646.154	542619.699	4104.000000
468676.923	542619.699	4095.000000
468707.692	542619.699	4097.000000
468738.462	542619.699	4115.000000
468769.231	542619.699	4123.000000
468800.000	542619.699	4131.000000
468830.769	542619.699	4139.000000
468861.538	542619.699	4154.000000
468892.308	542619.699	4188.000000
468923.077	542619.699	4184.000000
468953.846	542619.699	4173.000000
468984.615	542619.699	4164.000000
469015.385	542619.699	4156.000000
469046.154	542619.699	4144.000000
469076.923	542619.699	4140.000000
469107.692	542619.699	4130.000000
469169.231	542619.699	4138.000000
469200.000	542619.699	4151.000000
469230.769	542619.699	4159.000000
469261.538	542619.699	4171.000000
469292.308	542619.699	4187.000000
469323.077	542619.699	4201.000000
469353.846	542619.699	4222.000000
469384.615	542619.699	4236.000000
469415.385	542619.699	4243.000000
469446.154	542619.699	4243.000000
469476.923	542619.699	4240.000000
469507.692	542619.699	4226.000000
465138.462	542650.479	4549.000000
465169.231	542650.479	4538.000000
465200.000	542650.479	4523.000000
465230.769	542650.479	4510.000000
465261.538	542650.479	4499.000000
465292.308	542650.479	4488.000000
465323.077	542650.479	4471.000000
465353.846	542650.479	4470.000000
465384.615	542650.479	4476.000000
465415.385	542650.479	4469.000000
465446.154	542650.479	4459.000000
465476.923	542650.479	4438.000000
465507.692	542650.479	4404.000000
465538.462	542650.479	4391.000000
465569.231	542650.479	4394.000000
466215.385	542650.479	4354.000000
466246.154	542650.479	4354.000000
466276.923	542650.479	4348.000000
466307.692	542650.479	4351.000000
466338.462	542650.479	4360.000000
466369.231	542650.479	4382.000000
466400.000	542650.479	4402.000000
466430.769	542650.479	4405.000000
466461.538	542650.479	4408.000000
466492.308	542650.479	4423.000000
466523.077	542650.479	4443.000000
466553.846	542650.479	4456.000000
466584.615	542650.479	4455.000000
466615.385	542650.479	4383.000000
466646.154	542650.479	4349.000000
466676.923	542650.479	4347.000000
466707.692	542650.479	4343.000000
466738.462	542650.479	4332.000000
466769.231	542650.479	4323.000000
466800.000	542650.479	4314.000000
466830.769	542650.479	4302.000000
466861.538	542650.479	4300.000000
467015.385	542650.479	4303.000000
467046.154	542650.479	4304.000000
467076.923	542650.479	4302.000000
467138.462	542650.479	4294.000000
467169.231	542650.479	4293.000000
467200.000	542650.479	4291.000000
468646.154	542650.479	4082.000000
468676.923	542650.479	4083.000000
468707.692	542650.479	4086.000000
468738.462	542650.479	4095.000000
468769.231	542650.479	4104.000000
468800.000	542650.479	4109.000000
468830.769	542650.479	4118.000000
468861.538	542650.479	4135.000000
468892.308	542650.479	4172.000000
468923.077	542650.479	4173.000000
468953.846	542650.479	4163.000000
468984.615	542650.479	4147.000000
469015.385	542650.479	4136.000000
469046.154	542650.479	4131.000000
469076.923	542650.479	4138.000000
469107.692	542650.479	4125.000000
469138.462	542650.479	4124.000000
469200.000	542650.479	4140.000000
469230.769	542650.479	4150.000000
469261.538	542650.479	4164.000000
469292.308	542650.479	4182.000000
469323.077	542650.479	4195.000000
469353.846	542650.479	4211.000000
469384.615	542650.479	4226.000000
469415.385	542650.479	4235.000000
469446.154	542650.479	4245.000000
469476.923	542650.479	4245.000000
469507.692	542650.479	4230.000000
469538.462	542650.479	4218.000000
465169.231	542681.259	4545.000000
465200.000	542681.259	4527.000000
465230.769	542681.259	4508.000000
465261.538	542681.259	4500.000000
465292.308	542681.259	4478.000000
465323.077	542681.259	4464.000000
465353.846	542681.259	4465.000000
465384.615	542681.259	4468.000000
465415.385	542681.259	4460.000000
465446.154	542681.259	4458.000000
465476.923	542681.259	4446.000000
465507.692	542681.259	4404.000000
465538.462	542681.259	4382.000000
465569.231	542681.259	4384.000000
466307.692	542681.259	4340.000000
466338.462	542681.259	4343.000000
466369.231	542681.259	4356.000000
466400.000	542681.259	4369.000000
466430.769	542681.259	4376.000000
466461.538	542681.259	4385.000000
466492.308	542681.259	4392.000000
466523.077	542681.259	4403.000000
466553.846	542681.259	4413.000000
466584.615	542681.259	4428.000000
466615.385	542681.259	4347.000000
466646.154	542681.259	4348.000000
466676.923	542681.259	4346.000000
466707.692	542681.259	4339.000000
466738.462	542681.259	4330.000000
466769.231	542681.259	4318.000000
466800.000	542681.259	4307.000000
466830.769	542681.259	4298.000000
466861.538	542681.259	4297.000000
466923.077	542681.259	4303.000000
467015.385	542681.259	4303.000000
467046.154	542681.259	4302.000000
467076.923	542681.259	4299.000000
467107.692	542681.259	4294.000000
467138.462	542681.259	4289.000000
467169.231	542681.259	4287.000000
467200.000	542681.259	4283.000000
468646.154	542681.259	4035.000000
468676.923	542681.259	4063.000000
468707.692	542681.259	4072.000000
468738.462	542681.259	4080.000000
468769.231	542681.259	4092.000000
468800.000	542681.259	4094.000000
468830.769	542681.259	4105.000000
468861.538	542681.259	4108.000000
468892.308	542681.259	4120.000000
468923.077	542681.259	4130.000000
468953.846	542681.259	4114.000000
468984.615	542681.259	4124.000000
469015.385	542681.259	4119.000000
469046.154	542681.259	4116.000000
469076.923	542681.259	4120.000000
469107.692	542681.259	4121.000000
469138.462	542681.259	4126.000000
469169.231	542681.259	4131.000000
469200.000	542681.259	4134.000000
469230.769	542681.259	4142.000000
469261.538	542681.259	4157.000000
469292.308	542681.259	4176.000000
469323.077	542681.259	4190.000000
469353.846	542681.259	4202.000000
469384.615	542681.259	4214.000000
469415.385	542681.259	4228.000000
469446.154	542681.259	4241.000000
469476.923	542681.259	4245.000000
469507.692	542681.259	4238.000000
469538.462	542681.259	4216.000000
465169.231	542712.038	4565.000000
465200.000	542712.038	4525.000000
465230.769	542712.038	4515.000000
465261.538	542712.038	4505.000000
465292.308	542712.038	4489.000000
465323.077	542712.038	4467.000000
465353.846	542712.038	4466.000000
465384.615	542712.038	4461.000000
465415.385	542712.038	4451.000000
465446.154	542712.038	4454.000000
465476.923	542712.038	4448.000000
465507.692	542712.038	4416.000000
465538.462	542712.038	4385.000000
465569.231	542712.038	4378.000000
465600.000	542712.038	4371.000000
466338.462	542712.038	4325.000000
466492.308	542712.038	4375.000000
466523.077	542712.038	4381.000000
466553.846	542712.038	4381.000000
466584.615	542712.038	4364.000000
466615.385	542712.038	4351.000000
466646.154	542712.038	4352.000000
466769.231	542712.038	4318.000000
466800.000	542712.038	4303.000000
466830.769	542712.038	4294.000000
466861.538	542712.038	4294.000000
466892.308	542712.038	4299.000000
466923.077	542712.038	4300.000000
466953.846	542712.038	4301.000000
466984.615	542712.038	4298.000000
467015.385	542712.038	4298.000000
467046.154	542712.038	4299.000000
467076.923	542712.038	4297.000000
467107.692	542712.038	4291.000000
467138.462	542712.038	4286.000000
467169.231	542712.038	4277.000000
467200.000	542712.038	4268.000000
