468523.077	543974.008	3761.000000
468553.846	543974.008	3756.000000
466492.308	544004.788	4316.000000
466523.077	544004.788	4316.000000
466553.846	544004.788	4312.000000
466584.615	544004.788	4297.000000
466615.385	544004.788	4148.000000
466646.154	544004.788	4139.000000
466676.923	544004.788	4127.000000
466707.692	544004.788	4105.000000
466738.462	544004.788	4085.000000
466769.231	544004.788	4074.000000
466800.000	544004.788	4074.000000
466830.769	544004.788	4081.000000
466861.538	544004.788	4087.000000
466892.308	544004.788	4090.000000
466923.077	544004.788	4102.000000
466953.846	544004.788	4102.000000
466984.615	544004.788	4083.000000
467015.385	544004.788	4067.000000
467046.154	544004.788	4053.000000
467076.923	544004.788	4040.000000
467107.692	544004.788	4039.000000
467138.462	544004.788	4045.000000
467200.000	544004.788	4051.000000
467230.769	544004.788	4054.000000
467261.538	544004.788	4055.000000
467292.308	544004.788	4047.000000
467323.077	544004.788	4041.000000
467353.846	544004.788	4036.000000
467384.615	544004.788	4030.000000
467415.385	544004.788	4019.000000
467446.154	544004.788	4015.000000
467476.923	544004.788	4008.000000
467507.692	544004.788	4001.000000
467538.462	544004.788	3992.000000
467569.231	544004.788	3985.000000
467600.000	544004.788	3976.000000
467630.769	544004.788	3967.000000
467661.538	544004.788	3960.000000
467692.308	544004.788	3943.000000
467723.077	544004.788	3939.000000
467753.846	544004.788	3940.000000
467784.615	544004.788	3934.000000
467815.385	544004.788	3927.000000
467846.154	544004.788	3917.000000
467876.923	544004.788	3909.000000
467907.692	544004.788	3905.000000
467938.462	544004.788	3888.000000
467969.231	544004.788	3883.000000
468000.000	544004.788	3876.000000
468030.769	544004.788	3870.000000
468061.538	544004.788	3866.000000
468092.308	544004.788	3860.000000
468123.077	544004.788	3856.000000
468153.846	544004.788	3853.000000
468184.615	544004.788	3849.000000
468215.385	544004.788	3847.000000
468246.154	544004.788	3845.000000
468276.923	544004.788	3838.000000
468307.692	544004.788	3833.000000
468338.462	544004.788	3830.000000
468369.231	544004.788	3826.000000
468400.000	544004.788	3820.000000
468430.769	544004.788	3802.000000
468461.538	544004.788	3785.000000
468492.308	544004.788	3776.000000
468523.077	544004.788	3766.000000
468553.846	544004.788	3759.000000
466523.077	544035.568	4314.000000
466553.846	544035.568	4313.000000
466584.615	544035.568	4312.000000
466615.385	544035.568	4189.000000
466646.154	544035.568	4155.000000
466676.923	544035.568	4131.000000
466707.692	544035.568	4116.000000
466738.462	544035.568	4087.000000
466769.231	544035.568	4069.000000
466800.000	544035.568	4067.000000
466830.769	544035.568	4065.000000
466861.538	544035.568	4066.000000
466892.308	544035.568	4077.000000
466923.077	544035.568	4087.000000
466953.846	544035.568	4094.000000
466984.615	544035.568	4088.000000
467015.385	544035.568	4075.000000
467046.154	544035.568	4058.000000
467076.923	544035.568	4042.000000
467107.692	544035.568	4033.000000
467138.462	544035.568	4035.000000
467169.231	544035.568	4035.000000
467230.769	544035.568	4046.000000
467261.538	544035.568	4050.000000
467292.308	544035.568	4045.000000
467323.077	544035.568	4037.000000
467353.846	544035.568	4033.000000
467384.615	544035.568	4024.000000
467415.385	544035.568	4017.000000
467446.154	544035.568	4014.000000
467476.923	544035.568	4011.000000
467507.692	544035.568	4008.000000
467538.462	544035.568	3998.000000
467569.231	544035.568	3991.000000
467600.000	544035.568	3981.000000
467630.769	544035.568	3965.000000
467661.538	544035.568	3961.000000
467692.308	544035.568	3950.000000
467723.077	544035.568	3939.000000
467753.846	544035.568	3934.000000
467784.615	544035.568	3928.000000
467815.385	544035.568	3921.000000
467846.154	544035.568	3917.000000
467876.923	544035.568	3913.000000
467907.692	544035.568	3903.000000
467938.462	544035.568	3892.000000
467969.231	544035.568	3879.000000
468000.000	544035.568	3873.000000
468030.769	544035.568	3869.000000
468061.538	544035.568	3863.000000
468092.308	544035.568	3854.000000
468123.077	544035.568	3850.000000
468153.846	544035.568	3849.000000
468184.615	544035.568	3847.000000
468215.385	544035.568	3845.000000
468246.154	544035.568	3844.000000
468276.923	544035.568	3841.000000
468307.692	544035.568	3833.000000
468338.462	544035.568	3826.000000
468369.231	544035.568	3820.000000
468400.000	544035.568	3812.000000
468430.769	544035.568	3797.000000
468461.538	544035.568	3784.000000
468492.308	544035.568	3779.000000
468523.077	544035.568	3768.000000
468553.846	544035.568	3760.000000
468584.615	544035.568	3753.000000
466523.077	544066.347	4310.000000
466553.846	544066.347	4310.000000
466584.615	544066.347	4301.000000
466615.385	544066.347	4247.000000
466646.154	544066.347	4178.000000
466676.923	544066.347	4176.000000
466707.692	544066.347	4132.000000
466738.462	544066.347	4117.000000
466769.231	544066.347	4082.000000
466800.000	544066.347	4075.000000
466830.769	544066.347	4055.000000
466861.538	544066.347	4050.000000
466892.308	544066.347	4056.000000
466923.077	544066.347	4068.000000
466953.846	544066.347	4076.000000
466984.615	544066.347	4085.000000
467015.385	544066.347	4078.000000
467046.154	544066.347	4066.000000
467076.923	544066.347	4053.000000
467107.692	544066.347	4035.000000
467138.462	544066.347	4028.000000
467169.231	544066.347	4025.000000
467200.000	544066.347	4022.000000
467230.769	544066.347	4033.000000
467261.538	544066.347	4044.000000
467292.308	544066.347	4041.000000
467323.077	544066.347	4032.000000
467353.846	544066.347	4029.000000
467384.615	544066.347	4022.000000
467415.385	544066.347	4017.000000
467446.154	544066.347	4016.000000
467476.923	544066.347	4013.000000
467507.692	544066.347	4013.000000
467538.462	544066.347	4004.000000
467569.231	544066.347	4001.000000
467600.000	544066.347	3987.000000
467630.769	544066.347	3971.000000
467661.538	544066.347	3962.000000
467692.308	544066.347	3956.000000
467723.077	544066.347	3945.000000
467753.846	544066.347	3936.000000
467784.615	544066.347	3923.000000
467815.385	544066.347	3914.000000
467846.154	544066.347	3914.000000
467876.923	544066.347	3912.000000
467907.692	544066.347	3906.000000
467938.462	544066.347	3893.000000
467969.231	544066.347	3880.000000
468000.000	544066.347	3873.000000
468030.769	544066.347	3871.000000
468061.538	544066.347	3865.000000
468092.308	544066.347	3854.000000
468123.077	544066.347	3848.000000
468153.846	544066.347	3847.000000
468184.615	544066.347	3845.000000
468215.385	544066.347	3838.000000
468246.154	544066.347	3836.000000
468276.923	544066.347	3835.000000
468307.692	544066.347	3827.000000
468338.462	544066.347	3817.000000
468369.231	544066.347	3812.000000
468400.000	544066.347	3803.000000
468430.769	544066.347	3793.000000
468461.538	544066.347	3787.000000
468492.308	544066.347	3782.000000
468523.077	544066.347	3767.000000
468553.846	544066.347	3758.000000
468584.615	544066.347	3750.000000
466523.077	544097.127	4303.000000
466553.846	544097.127	4306.000000
466584.615	544097.127	4308.000000
466615.385	544097.127	4297.000000
466646.154	544097.127	4210.000000
466676.923	544097.127	4210.000000
466707.692	544097.127	4178.000000
466738.462	544097.127	4136.000000
466769.231	544097.127	4110.000000
466800.000	544097.127	4090.000000
466830.769	544097.127	4066.000000
466861.538	544097.127	4044.000000
466892.308	544097.127	4045.000000
466923.077	544097.127	4053.000000
466953.846	544097.127	4061.000000
466984.615	544097.127	4076.000000
467015.385	544097.127	4080.000000
467046.154	544097.127	4072.000000
467076.923	544097.127	4062.000000
467107.692	544097.127	4044.000000
467138.462	544097.127	4029.000000
467169.231	544097.127	4019.000000
467200.000	544097.127	4014.000000
467230.769	544097.127	4022.000000
467261.538	544097.127	4031.000000
467292.308	544097.127	4036.000000
467323.077	544097.127	4028.000000
467353.846	544097.127	4027.000000
467384.615	544097.127	4021.000000
467415.385	544097.127	4018.000000
467446.154	544097.127	4015.000000
467476.923	544097.127	4011.000000
467507.692	544097.127	4007.000000
467538.462	544097.127	4002.000000
467569.231	544097.127	4001.000000
467600.000	544097.127	3992.000000
467630.769	544097.127	3976.000000
467661.538	544097.127	3959.000000
467692.308	544097.127	3954.000000
467723.077	544097.127	3947.000000
467753.846	544097.127	3939.000000
467784.615	544097.127	3925.000000
467815.385	544097.127	3913.000000
467846.154	544097.127	3907.000000
467876.923	544097.127	3905.000000
467907.692	544097.127	3903.000000
467938.462	544097.127	3890.000000
467969.231	544097.127	3882.000000
468000.000	544097.127	3875.000000
468030.769	544097.127	3871.000000
468061.538	544097.127	3863.000000
468123.077	544097.127	3847.000000
468153.846	544097.127	3847.000000
468184.615	544097.127	3845.000000
468215.385	544097.127	3836.000000
468246.154	544097.127	3830.000000
468276.923	544097.127	3825.000000
468307.692	544097.127	3821.000000
468338.462	544097.127	3810.000000
468369.231	544097.127	3808.000000
468400.000	544097.127	3805.000000
468430.769	544097.127	3793.000000
468461.538	544097.127	3785.000000
468492.308	544097.127	3781.000000
468523.077	544097.127	3764.000000
468553.846	544097.127	3756.000000
468584.615	544097.127	3745.000000
468615.385	544097.127	3739.000000
466553.846	544127.907	4302.000000
466584.615	544127.907	4307.000000
466615.385	544127.907	4303.000000
466646.154	544127.907	4222.000000
466676.923	544127.907	4224.000000
466707.692	544127.907	4195.000000
466738.462	544127.907	4134.000000
466769.231	544127.907	4115.000000
466800.000	544127.907	4098.000000
466830.769	544127.907	4080.000000
466861.538	544127.907	4053.000000
466892.308	544127.907	4042.000000
466923.077	544127.907	4045.000000
466953.846	544127.907	4051.000000
466984.615	544127.907	4063.000000
467015.385	544127.907	4074.000000
467046.154	544127.907	4075.000000
467076.923	544127.907	4068.000000
467107.692	544127.907	4048.000000
467138.462	544127.907	4033.000000
467169.231	544127.907	4021.000000
467200.000	544127.907	4012.000000
467230.769	544127.907	4016.000000
467261.538	544127.907	4020.000000
467292.308	544127.907	4026.000000
467323.077	544127.907	4026.000000
467353.846	544127.907	4024.000000
467384.615	544127.907	4018.000000
467415.385	544127.907	4014.000000
467446.154	544127.907	4011.000000
467476.923	544127.907	4006.000000
467507.692	544127.907	3998.000000
467538.462	544127.907	3997.000000
467569.231	544127.907	3998.000000
467661.538	544127.907	3960.000000
467692.308	544127.907	3953.000000
467723.077	544127.907	3944.000000
467753.846	544127.907	3939.000000
467784.615	544127.907	3928.000000
467815.385	544127.907	3915.000000
467846.154	544127.907	3908.000000
467876.923	544127.907	3902.000000
467907.692	544127.907	3899.000000
467938.462	544127.907	3889.000000
467969.231	544127.907	3880.000000
468000.000	544127.907	3874.000000
468030.769	544127.907	3863.000000
468061.538	544127.907	3858.000000
468092.308	544127.907	3849.000000
468123.077	544127.907	3845.000000
468153.846	544127.907	3846.000000
468184.615	544127.907	3847.000000
468215.385	544127.907	3843.000000
468246.154	544127.907	3831.000000
468276.923	544127.907	3827.000000
468307.692	544127.907	3821.000000
468338.462	544127.907	3812.000000
468400.000	544127.907	3809.000000
468430.769	544127.907	3798.000000
468461.538	544127.907	3782.000000
468492.308	544127.907	3777.000000
468523.077	544127.907	3768.000000
468553.846	544127.907	3760.000000
468584.615	544127.907	3748.000000
468615.385	544127.907	3735.000000
466553.846	544158.687	4296.000000
466584.615	544158.687	4304.000000
466615.385	544158.687	4305.000000
466646.154	544158.687	4271.000000
466676.923	544158.687	4232.000000
466707.692	544158.687	4197.000000
466738.462	544158.687	4136.000000
466769.231	544158.687	4116.000000
466800.000	544158.687	4101.000000
466830.769	544158.687	4087.000000
466861.538	544158.687	4072.000000
466892.308	544158.687	4047.000000
466923.077	544158.687	4039.000000
466953.846	544158.687	4042.000000
466984.615	544158.687	4051.000000
467015.385	544158.687	4060.000000
467046.154	544158.687	4066.000000
467076.923	544158.687	4066.000000
467107.692	544158.687	4049.000000
467138.462	544158.687	4036.000000
467169.231	544158.687	4028.000000
467200.000	544158.687	4013.000000
467230.769	544158.687	4006.000000
467261.538	544158.687	4007.000000
467292.308	544158.687	4016.000000
467323.077	544158.687	4015.000000
467353.846	544158.687	4015.000000
467384.615	544158.687	4014.000000
467415.385	544158.687	4010.000000
467446.154	544158.687	4004.000000
467476.923	544158.687	3995.000000
467507.692	544158.687	3988.000000
467538.462	544158.687	3991.000000
467569.231	544158.687	3989.000000
467600.000	544158.687	3987.000000
467630.769	544158.687	3972.000000
467692.308	544158.687	3956.000000
467723.077	544158.687	3945.000000
467753.846	544158.687	3937.000000
467784.615	544158.687	3927.000000
467815.385	544158.687	3918.000000
467846.154	544158.687	3910.000000
467876.923	544158.687	3903.000000
467907.692	544158.687	3899.000000
467938.462	544158.687	3890.000000
467969.231	544158.687	3886.000000
468000.000	544158.687	3877.000000
468030.769	544158.687	3869.000000
468061.538	544158.687	3859.000000
468092.308	544158.687	3849.000000
468123.077	544158.687	3844.000000
468153.846	544158.687	3844.000000
468184.615	544158.687	3844.000000
468215.385	544158.687	3842.000000
468246.154	544158.687	3835.000000
468276.923	544158.687	3829.000000
468307.692	544158.687	3823.000000
468338.462	544158.687	3814.000000
468369.231	544158.687	3808.000000
468400.000	544158.687	3809.000000
468430.769	544158.687	3799.000000
468461.538	544158.687	3783.000000
468492.308	544158.687	3778.000000
468523.077	544158.687	3774.000000
468553.846	544158.687	3769.000000
468584.615	544158.687	3758.000000
468615.385	544158.687	3747.000000
466584.615	544189.466	4296.000000
466615.385	544189.466	4304.000000
466646.154	544189.466	4290.000000
466676.923	544189.466	4241.000000
466707.692	544189.466	4207.000000
466738.462	544189.466	4151.000000
466769.231	544189.466	4122.000000
466800.000	544189.466	4099.000000
466830.769	544189.466	4091.000000
466861.538	544189.466	4081.000000
466892.308	544189.466	4062.000000
466923.077	544189.466	4036.000000
466953.846	544189.466	4039.000000
466984.615	544189.466	4041.000000
467015.385	544189.466	4045.000000
467046.154	544189.466	4047.000000
467076.923	544189.466	4055.000000
467107.692	544189.466	4049.000000
467138.462	544189.466	4037.000000
467169.231	544189.466	4031.000000
467200.000	544189.466	4019.000000
467230.769	544189.466	4005.000000
467261.538	544189.466	3999.000000
467292.308	544189.466	3997.000000
467323.077	544189.466	4002.000000
467353.846	544189.466	3998.000000
467415.385	544189.466	4001.000000
467446.154	544189.466	3996.000000
467507.692	544189.466	3980.000000
467538.462	544189.466	3979.000000
467569.231	544189.466	3972.000000
467600.000	544189.466	3962.000000
467630.769	544189.466	3958.000000
467661.538	544189.466	3952.000000
467692.308	544189.466	3950.000000
467753.846	544189.466	3936.000000
467784.615	544189.466	3930.000000
467815.385	544189.466	3920.000000
467846.154	544189.466	3911.000000
467876.923	544189.466	3901.000000
467907.692	544189.466	3896.000000
467938.462	544189.466	3891.000000
467969.231	544189.466	3889.000000
468000.000	544189.466	3884.000000
468030.769	544189.466	3874.000000
468061.538	544189.466	3865.000000
468092.308	544189.466	3851.000000
468123.077	544189.466	3845.000000
468153.846	544189.466	3841.000000
468184.615	544189.466	3832.000000
468215.385	544189.466	3832.000000
468246.154	544189.466	3828.000000
468276.923	544189.466	3825.000000
468307.692	544189.466	3820.000000
468338.462	544189.466	3814.000000
468369.231	544189.466	3806.000000
468400.000	544189.466	3804.000000
468430.769	544189.466	3797.000000
468461.538	544189.466	3783.000000
468492.308	544189.466	3780.000000
468523.077	544189.466	3774.000000
468553.846	544189.466	3768.000000
468584.615	544189.466	3761.000000
468615.385	544189.466	3753.000000
466584.615	544220.246	4289.000000
466615.385	544220.246	4296.000000
466646.154	544220.246	4298.000000
466676.923	544220.246	4277.000000
466707.692	544220.246	4260.000000
466738.462	544220.246	4180.000000
466769.231	544220.246	4120.000000
466800.000	544220.246	4086.000000
466830.769	544220.246	4094.000000
466861.538	544220.246	4089.000000
466892.308	544220.246	4077.000000
466923.077	544220.246	4058.000000
466953.846	544220.246	4044.000000
466984.615	544220.246	4035.000000
467015.385	544220.246	4033.000000
467046.154	544220.246	4028.000000
467076.923	544220.246	4035.000000
467107.692	544220.246	4042.000000
467138.462	544220.246	4036.000000
467169.231	544220.246	4031.000000
467200.000	544220.246	4025.000000
467230.769	544220.246	4012.000000
467261.538	544220.246	4001.000000
467292.308	544220.246	3994.000000
467323.077	544220.246	3997.000000
467353.846	544220.246	3995.000000
467384.615	544220.246	3994.000000
467476.923	544220.246	3981.000000
467507.692	544220.246	3977.000000
467538.462	544220.246	3976.000000
467569.231	544220.246	3959.000000
467600.000	544220.246	3942.000000
467630.769	544220.246	3938.000000
467661.538	544220.246	3934.000000
467692.308	544220.246	3929.000000
467723.077	544220.246	3932.000000
467753.846	544220.246	3933.000000
467784.615	544220.246	3928.000000
467815.385	544220.246	3922.000000
467846.154	544220.246	3915.000000
467876.923	544220.246	3901.000000
467907.692	544220.246	3896.000000
467938.462	544220.246	3890.000000
467969.231	544220.246	3888.000000
468000.000	544220.246	3881.000000
468061.538	544220.246	3865.000000
468092.308	544220.246	3855.000000
468123.077	544220.246	3848.000000
468153.846	544220.246	3842.000000
468184.615	544220.246	3828.000000
468215.385	544220.246	3826.000000
468246.154	544220.246	3823.000000
468276.923	544220.246	3824.000000
468307.692	544220.246	3817.000000
468338.462	544220.246	3813.000000
468369.231	544220.246	3802.000000
468400.000	544220.246	3794.000000
468430.769	544220.246	3786.000000
468461.538	544220.246	3779.000000
468492.308	544220.246	3777.000000
468523.077	544220.246	3772.000000
468553.846	544220.246	3760.000000
468584.615	544220.246	3759.000000
468615.385	544220.246	3753.000000
466584.615	544251.026	4285.000000
466615.385	544251.026	4292.000000
466646.154	544251.026	4295.000000
466676.923	544251.026	4308.000000
466707.692	544251.026	4308.000000
466738.462	544251.026	4305.000000
466769.231	544251.026	4150.000000
466800.000	544251.026	4089.000000
466830.769	544251.026	4095.000000
466861.538	544251.026	4094.000000
466892.308	544251.026	4088.000000
466923.077	544251.026	4075.000000
466953.846	544251.026	4058.000000
466984.615	544251.026	4036.000000
467015.385	544251.026	4021.000000
467046.154	544251.026	4011.000000
467076.923	544251.026	4017.000000
467107.692	544251.026	4027.000000
467138.462	544251.026	4030.000000
467169.231	544251.026	4028.000000
467200.000	544251.026	4025.000000
467230.769	544251.026	4018.000000
467261.538	544251.026	4008.000000
467292.308	544251.026	4001.000000
467323.077	544251.026	3999.000000
467353.846	544251.026	3998.000000
467384.615	544251.026	3992.000000
467415.385	544251.026	3991.000000
467446.154	544251.026	3980.000000
467476.923	544251.026	3977.000000
467507.692	544251.026	3974.000000
467538.462	544251.026	3973.000000
467569.231	544251.026	3962.000000
467600.000	544251.026	3942.000000
467630.769	544251.026	3928.000000
467661.538	544251.026	3923.000000
467692.308	544251.026	3917.000000
467723.077	544251.026	3917.000000
467753.846	544251.026	3918.000000
467784.615	544251.026	3913.000000
467815.385	544251.026	3923.000000
467846.154	544251.026	3916.000000
467876.923	544251.026	3906.000000
467969.231	544251.026	3880.000000
468000.000	544251.026	3874.000000
468092.308	544251.026	3857.000000
468123.077	544251.026	3854.000000
468153.846	544251.026	3844.000000
468184.615	544251.026	3828.000000
468246.154	544251.026	3824.000000
468276.923	544251.026	3822.000000
468307.692	544251.026	3814.000000
468338.462	544251.026	3807.000000
468369.231	544251.026	3793.000000
468400.000	544251.026	3786.000000
468430.769	544251.026	3783.000000
468461.538	544251.026	3780.000000
468492.308	544251.026	3779.000000
468523.077	544251.026	3773.000000
468553.846	544251.026	3760.000000
468584.615	544251.026	3757.000000
468615.385	544251.026	3751.000000
466615.385	544281.806	4283.000000
466646.154	544281.806	4293.000000
466676.923	544281.806	4307.000000
466707.692	544281.806	4310.000000
466738.462	544281.806	4307.000000
466769.231	544281.806	4227.000000
466800.000	544281.806	4093.000000
466830.769	544281.806	4094.000000
466861.538	544281.806	4099.000000
466892.308	544281.806	4096.000000
466923.077	544281.806	4093.000000
466953.846	544281.806	4077.000000
466984.615	544281.806	4050.000000
467015.385	544281.806	4017.000000
467046.154	544281.806	4001.000000
467076.923	544281.806	4005.000000
467107.692	544281.806	4013.000000
467138.462	544281.806	4018.000000
467169.231	544281.806	4021.000000
467200.000	544281.806	4021.000000
467230.769	544281.806	4016.000000
467261.538	544281.806	4011.000000
467292.308	544281.806	4003.000000
467323.077	544281.806	3996.000000
467353.846	544281.806	3988.000000
467384.615	544281.806	3977.000000
467415.385	544281.806	3968.000000
467446.154	544281.806	3949.000000
467476.923	544281.806	3938.000000
467507.692	544281.806	3942.000000
467538.462	544281.806	3950.000000
467569.231	544281.806	3953.000000
467600.000	544281.806	3947.000000
467630.769	544281.806	3933.000000
467661.538	544281.806	3926.000000
467692.308	544281.806	3919.000000
467723.077	544281.806	3908.000000
467753.846	544281.806	3896.000000
467784.615	544281.806	3897.000000
467815.385	544281.806	3903.000000
467846.154	544281.806	3906.000000
467876.923	544281.806	3898.000000
467969.231	544281.806	3872.000000
468000.000	544281.806	3868.000000
468030.769	544281.806	3870.000000
468123.077	544281.806	3850.000000
468153.846	544281.806	3841.000000
468184.615	544281.806	3831.000000
468215.385	544281.806	3825.000000
468246.154	544281.806	3818.000000
468276.923	544281.806	3814.000000
468338.462	544281.806	3800.000000
468369.231	544281.806	3795.000000
468400.000	544281.806	3789.000000
468430.769	544281.806	3786.000000
468461.538	544281.806	3786.000000
468492.308	544281.806	3783.000000
468523.077	544281.806	3773.000000
468553.846	544281.806	3759.000000
468584.615	544281.806	3751.000000
468615.385	544281.806	3750.000000
466615.385	544312.585	4273.000000
466646.154	544312.585	4287.000000
466676.923	544312.585	4297.000000
466707.692	544312.585	4299.000000
466738.462	544312.585	4271.000000
466769.231	544312.585	4208.000000
466800.000	544312.585	4128.000000
466830.769	544312.585	4099.000000
466861.538	544312.585	4101.000000
466892.308	544312.585	4100.000000
466923.077	544312.585	4099.000000
466953.846	544312.585	4094.000000
466984.615	544312.585	4061.000000
467015.385	544312.585	4031.000000
467046.154	544312.585	4009.000000
467076.923	544312.585	3999.000000
467107.692	544312.585	4002.000000
467138.462	544312.585	4007.000000
467169.231	544312.585	4013.000000
467200.000	544312.585	4014.000000
467230.769	544312.585	4010.000000
467261.538	544312.585	4004.000000
467292.308	544312.585	3997.000000
467323.077	544312.585	3989.000000
467353.846	544312.585	3979.000000
467384.615	544312.585	3967.000000
467415.385	544312.585	3951.000000
467446.154	544312.585	3916.000000
467476.923	544312.585	3906.000000
467507.692	544312.585	3910.000000
467538.462	544312.585	3923.000000
467569.231	544312.585	3934.000000
467600.000	544312.585	3942.000000
467630.769	544312.585	3944.000000
467661.538	544312.585	3934.000000
467692.308	544312.585	3926.000000
467907.692	544312.585	3874.000000
468000.000	544312.585	3864.000000
468123.077	544312.585	3839.000000
468184.615	544312.585	3826.000000
468215.385	544312.585	3821.000000
468246.154	544312.585	3813.000000
468276.923	544312.585	3804.000000
468400.000	544312.585	3792.000000
468430.769	544312.585	3788.000000
468461.538	544312.585	3788.000000
468492.308	544312.585	3784.000000
468523.077	544312.585	3769.000000
468553.846	544312.585	3757.000000
468584.615	544312.585	3747.000000
468615.385	544312.585	3748.000000
466646.154	544343.365	4282.000000
466676.923	544343.365	4288.000000
466707.692	544343.365	4289.000000
466738.462	544343.365	4270.000000
466769.231	544343.365	4223.000000
466800.000	544343.365	4151.000000
466830.769	544343.365	4101.000000
466861.538	544343.365	4103.000000
466892.308	544343.365	4101.000000
466923.077	544343.365	4097.000000
466953.846	544343.365	4091.000000
466984.615	544343.365	4077.000000
467015.385	544343.365	4052.000000
467046.154	544343.365	4029.000000
467076.923	544343.365	4007.000000
467107.692	544343.365	4003.000000
467138.462	544343.365	4000.000000
467169.231	544343.365	4000.000000
467200.000	544343.365	4002.000000
467230.769	544343.365	4004.000000
467261.538	544343.365	3996.000000
467292.308	544343.365	3992.000000
467323.077	544343.365	3985.000000
467353.846	544343.365	3979.000000
467384.615	544343.365	3972.000000
467415.385	544343.365	3951.000000
467446.154	544343.365	3924.000000
467476.923	544343.365	3907.000000
467507.692	544343.365	3907.000000
467538.462	544343.365	3913.000000
467569.231	544343.365	3922.000000
467600.000	544343.365	3927.000000
467630.769	544343.365	3931.000000
467661.538	544343.365	3934.000000
467692.308	544343.365	3929.000000
468153.846	544343.365	3820.000000
468184.615	544343.365	3817.000000
468215.385	544343.365	3817.000000
468246.154	544343.365	3808.000000
468400.000	544343.365	3790.000000
468430.769	544343.365	3787.000000
468461.538	544343.365	3787.000000
468492.308	544343.365	3783.000000
468523.077	544343.365	3768.000000
468553.846	544343.365	3757.000000
468584.615	544343.365	3747.000000
468615.385	544343.365	3741.000000
466646.154	544374.145	4276.000000
466676.923	544374.145	4281.000000
466707.692	544374.145	4282.000000
466738.462	544374.145	4281.000000
466769.231	544374.145	4239.000000
466800.000	544374.145	4171.000000
466830.769	544374.145	4106.000000
466861.538	544374.145	4105.000000
466892.308	544374.145	4103.000000
466923.077	544374.145	4097.000000
466953.846	544374.145	4092.000000
466984.615	544374.145	4089.000000
467015.385	544374.145	4074.000000
467046.154	544374.145	4048.000000
467076.923	544374.145	4024.000000
467107.692	544374.145	4008.000000
467138.462	544374.145	3990.000000
467169.231	544374.145	3988.000000
467200.000	544374.145	3992.000000
467230.769	544374.145	3997.000000
467261.538	544374.145	3994.000000
467292.308	544374.145	3991.000000
467323.077	544374.145	3990.000000
467353.846	544374.145	3983.000000
467384.615	544374.145	3977.000000
467415.385	544374.145	3962.000000
467446.154	544374.145	3939.000000
467476.923	544374.145	3921.000000
467507.692	544374.145	3912.000000
467538.462	544374.145	3907.000000
467569.231	544374.145	3910.000000
467600.000	544374.145	3913.000000
467630.769	544374.145	3918.000000
467661.538	544374.145	3921.000000
467692.308	544374.145	3921.000000
468153.846	544374.145	3814.000000
468184.615	544374.145	3811.000000
468215.385	544374.145	3808.000000
468246.154	544374.145	3803.000000
468430.769	544374.145	3780.000000
468461.538	544374.145	3780.000000
468492.308	544374.145	3777.000000
468523.077	544374.145	3769.000000
468553.846	544374.145	3759.000000
468584.615	544374.145	3746.000000
468615.385	544374.145	3734.000000
466676.923	544404.925	4272.000000
466707.692	544404.925	4274.000000
466738.462	544404.925	4273.000000
466769.231	544404.925	4272.000000
466800.000	544404.925	4199.000000
466830.769	544404.925	4117.000000
466861.538	544404.925	4108.000000
466892.308	544404.925	4103.000000
466923.077	544404.925	4098.000000
466953.846	544404.925	4093.000000
466984.615	544404.925	4091.000000
467015.385	544404.925	4080.000000
467046.154	544404.925	4062.000000
467076.923	544404.925	4043.000000
467107.692	544404.925	4020.000000
467138.462	544404.925	3993.000000
467169.231	544404.925	3984.000000
467200.000	544404.925	3987.000000
467230.769	544404.925	3990.000000
467261.538	544404.925	3989.000000
467292.308	544404.925	3992.000000
467323.077	544404.925	3991.000000
467353.846	544404.925	3987.000000
467384.615	544404.925	3981.000000
467415.385	544404.925	3975.000000
467446.154	544404.925	3959.000000
467476.923	544404.925	3945.000000
467507.692	544404.925	3923.000000
467538.462	544404.925	3903.000000
467569.231	544404.925	3905.000000
467600.000	544404.925	3905.000000
467630.769	544404.925	3904.000000
467661.538	544404.925	3896.000000
467692.308	544404.925	3898.000000
467723.077	544404.925	3895.000000
468184.615	544404.925	3803.000000
468215.385	544404.925	3799.000000
468246.154	544404.925	3795.000000
468461.538	544404.925	3774.000000
468492.308	544404.925	3772.000000
468523.077	544404.925	3767.000000
468553.846	544404.925	3759.000000
468584.615	544404.925	3745.000000
468615.385	544404.925	3732.000000
466707.692	544435.705	4261.000000
466738.462	544435.705	4257.000000
466769.231	544435.705	4247.000000
466800.000	544435.705	4231.000000
466830.769	544435.705	4180.000000
466861.538	544435.705	4120.000000
466892.308	544435.705	4108.000000
466923.077	544435.705	4101.000000
466953.846	544435.705	4092.000000
466984.615	544435.705	4090.000000
467015.385	544435.705	4085.000000
467046.154	544435.705	4070.000000
467076.923	544435.705	4062.000000
467107.692	544435.705	4039.000000
467138.462	544435.705	4010.000000
467169.231	544435.705	3985.000000
467200.000	544435.705	3983.000000
467230.769	544435.705	3982.000000
467261.538	544435.705	3981.000000
467292.308	544435.705	3988.000000
467323.077	544435.705	3987.000000
467353.846	544435.705	3985.000000
467384.615	544435.705	3983.000000
467415.385	544435.705	3982.000000
467446.154	544435.705	3973.000000
467476.923	544435.705	3961.000000
467507.692	544435.705	3939.000000
467538.462	544435.705	3917.000000
467569.231	544435.705	3911.000000
467600.000	544435.705	3899.000000
467630.769	544435.705	3891.000000
467661.538	544435.705	3882.000000
467692.308	544435.705	3878.000000
467723.077	544435.705	3875.000000
467753.846	544435.705	3862.000000
468184.615	544435.705	3793.000000
468215.385	544435.705	3788.000000
468246.154	544435.705	3780.000000
468461.538	544435.705	3767.000000
468492.308	544435.705	3769.000000
468523.077	544435.705	3763.000000
468553.846	544435.705	3756.000000
468584.615	544435.705	3743.000000
468615.385	544435.705	3731.000000
466769.231	544466.484	4232.000000
466800.000	544466.484	4233.000000
466830.769	544466.484	4209.000000
466861.538	544466.484	4170.000000
466892.308	544466.484	4119.000000
466923.077	544466.484	4113.000000
466953.846	544466.484	4099.000000
466984.615	544466.484	4093.000000
467015.385	544466.484	4091.000000
467046.154	544466.484	4083.000000
467076.923	544466.484	4075.000000
467107.692	544466.484	4060.000000
467138.462	544466.484	4032.000000
467169.231	544466.484	4004.000000
467200.000	544466.484	3987.000000
467230.769	544466.484	3978.000000
467261.538	544466.484	3977.000000
467292.308	544466.484	3978.000000
467323.077	544466.484	3977.000000
467353.846	544466.484	3974.000000
467384.615	544466.484	3979.000000
467415.385	544466.484	3982.000000
467446.154	544466.484	3973.000000
467476.923	544466.484	3962.000000
467507.692	544466.484	3944.000000
467538.462	544466.484	3928.000000
467569.231	544466.484	3917.000000
467600.000	544466.484	3906.000000
467630.769	544466.484	3888.000000
467661.538	544466.484	3877.000000
467692.308	544466.484	3872.000000
467723.077	544466.484	3870.000000
467753.846	544466.484	3864.000000
468184.615	544466.484	3786.000000
468215.385	544466.484	3781.000000
468246.154	544466.484	3767.000000
468523.077	544466.484	3758.000000
468553.846	544466.484	3752.000000
468584.615	544466.484	3739.000000
468615.385	544466.484	3727.000000
466800.000	544497.264	4222.000000
466830.769	544497.264	4212.000000
466861.538	544497.264	4187.000000
466892.308	544497.264	4140.000000
466923.077	544497.264	4123.000000
466953.846	544497.264	4109.000000
466984.615	544497.264	4099.000000
467015.385	544497.264	4097.000000
467046.154	544497.264	4090.000000
467076.923	544497.264	4084.000000
467107.692	544497.264	4071.000000
467138.462	544497.264	4048.000000
467169.231	544497.264	4024.000000
467200.000	544497.264	4002.000000
467230.769	544497.264	3983.000000
467261.538	544497.264	3979.000000
467292.308	544497.264	3971.000000
467323.077	544497.264	3965.000000
467353.846	544497.264	3966.000000
467384.615	544497.264	3969.000000
467415.385	544497.264	3963.000000
467446.154	544497.264	3957.000000
467476.923	544497.264	3944.000000
467507.692	544497.264	3935.000000
467538.462	544497.264	3921.000000
467569.231	544497.264	3916.000000
467600.000	544497.264	3910.000000
467630.769	544497.264	3897.000000
467661.538	544497.264	3883.000000
467692.308	544497.264	3874.000000
467723.077	544497.264	3871.000000
467753.846	544497.264	3864.000000
467784.615	544497.264	3845.000000
468184.615	544497.264	3779.000000
468215.385	544497.264	3776.000000
468246.154	544497.264	3769.000000
468523.077	544497.264	3750.000000
468553.846	544497.264	3747.000000
468584.615	544497.264	3735.000000
468615.385	544497.264	3723.000000
468646.154	544497.264	3725.000000
466800.000	544528.044	4216.000000
466830.769	544528.044	4208.000000
466861.538	544528.044	4193.000000
466892.308	544528.044	4161.000000
466923.077	544528.044	4136.000000
466953.846	544528.044	4122.000000
466984.615	544528.044	4106.000000
467015.385	544528.044	4102.000000
467046.154	544528.044	4098.000000
467076.923	544528.044	4092.000000
467107.692	544528.044	4079.000000
467138.462	544528.044	4059.000000
467169.231	544528.044	4044.000000
467200.000	544528.044	4024.000000
467230.769	544528.044	4005.000000
467261.538	544528.044	3993.000000
467292.308	544528.044	3981.000000
467323.077	544528.044	3964.000000
467353.846	544528.044	3965.000000
467384.615	544528.044	3964.000000
467415.385	544528.044	3954.000000
467446.154	544528.044	3940.000000
467476.923	544528.044	3936.000000
467507.692	544528.044	3924.000000
467538.462	544528.044	3916.000000
467569.231	544528.044	3913.000000
467600.000	544528.044	3910.000000
467630.769	544528.044	3909.000000
467661.538	544528.044	3900.000000
467692.308	544528.044	3880.000000
467723.077	544528.044	3875.000000
467753.846	544528.044	3859.000000
467784.615	544528.044	3843.000000
468215.385	544528.044	3771.000000
468246.154	544528.044	3768.000000
468523.077	544528.044	3739.000000
468553.846	544528.044	3742.000000
468584.615	544528.044	3732.000000
468615.385	544528.044	3722.000000
468646.154	544528.044	3721.000000
466830.769	544558.824	4204.000000
466861.538	544558.824	4191.000000
466892.308	544558.824	4173.000000
466923.077	544558.824	4147.000000
466953.846	544558.824	4138.000000
466984.615	544558.824	4121.000000
467015.385	544558.824	4110.000000
467046.154	544558.824	4103.000000
467076.923	544558.824	4100.000000
467107.692	544558.824	4090.000000
467138.462	544558.824	4074.000000
467169.231	544558.824	4061.000000
467200.000	544558.824	4048.000000
467230.769	544558.824	4028.000000
467261.538	544558.824	4016.000000
467292.308	544558.824	4001.000000
467323.077	544558.824	3982.000000
467353.846	544558.824	3978.000000
467384.615	544558.824	3976.000000
467415.385	544558.824	3963.000000
467446.154	544558.824	3944.000000
467476.923	544558.824	3936.000000
467507.692	544558.824	3925.000000
467538.462	544558.824	3915.000000
467569.231	544558.824	3916.000000
467600.000	544558.824	3914.000000
467630.769	544558.824	3916.000000
467661.538	544558.824	3914.000000
467692.308	544558.824	3895.000000
467723.077	544558.824	3884.000000
467753.846	544558.824	3867.000000
467784.615	544558.824	3849.000000
467815.385	544558.824	3839.000000
468215.385	544558.824	3761.000000
468246.154	544558.824	3765.000000
468276.923	544558.824	3762.000000
468523.077	544558.824	3731.000000
468553.846	544558.824	3733.000000
468584.615	544558.824	3727.000000
468615.385	544558.824	3722.000000
468646.154	544558.824	3720.000000
466830.769	544589.603	4198.000000
466861.538	544589.603	4190.000000
466892.308	544589.603	4179.000000
466923.077	544589.603	4163.000000
466953.846	544589.603	4154.000000
466984.615	544589.603	4143.000000
467015.385	544589.603	4126.000000
467046.154	544589.603	4115.000000
467076.923	544589.603	4109.000000
467107.692	544589.603	4103.000000
467138.462	544589.603	4089.000000
467169.231	544589.603	4074.000000
467200.000	544589.603	4060.000000
467230.769	544589.603	4042.000000
467261.538	544589.603	4029.000000
467292.308	544589.603	4022.000000
467323.077	544589.603	4008.000000
467353.846	544589.603	3996.000000
467384.615	544589.603	3994.000000
467415.385	544589.603	3981.000000
467446.154	544589.603	3962.000000
467476.923	544589.603	3947.000000
467507.692	544589.603	3934.000000
467538.462	544589.603	3927.000000
467569.231	544589.603	3928.000000
467600.000	544589.603	3926.000000
467630.769	544589.603	3927.000000
467661.538	544589.603	3922.000000
467692.308	544589.603	3904.000000
467723.077	544589.603	3898.000000
467753.846	544589.603	3888.000000
467784.615	544589.603	3866.000000
467815.385	544589.603	3826.000000
467846.154	544589.603	3786.000000
467876.923	544589.603	3776.000000
468246.154	544589.603	3747.000000
468276.923	544589.603	3751.000000
468553.846	544589.603	3723.000000
468584.615	544589.603	3722.000000
468615.385	544589.603	3721.000000
468646.154	544589.603	3719.000000
468676.923	544589.603	3718.000000
466492.308	544620.383	4204.000000
466523.077	544620.383	4210.000000
466553.846	544620.383	4218.000000
466861.538	544620.383	4189.000000
466892.308	544620.383	4183.000000
466923.077	544620.383	4177.000000
466953.846	544620.383	4173.000000
466984.615	544620.383	4161.000000
467015.385	544620.383	4155.000000
467046.154	544620.383	4139.000000
467076.923	544620.383	4129.000000
467107.692	544620.383	4119.000000
467138.462	544620.383	4105.000000
467169.231	544620.383	4091.000000
467200.000	544620.383	4074.000000
467230.769	544620.383	4057.000000
467261.538	544620.383	4045.000000
467292.308	544620.383	4040.000000
467323.077	544620.383	4029.000000
467353.846	544620.383	4013.000000
467384.615	544620.383	4001.000000
467415.385	544620.383	3993.000000
467446.154	544620.383	3980.000000
467476.923	544620.383	3965.000000
467507.692	544620.383	3957.000000
467538.462	544620.383	3946.000000
467569.231	544620.383	3941.000000
467600.000	544620.383	3940.000000
467630.769	544620.383	3939.000000
467661.538	544620.383	3932.000000
467692.308	544620.383	3919.000000
467723.077	544620.383	3909.000000
467753.846	544620.383	3899.000000
467784.615	544620.383	3881.000000
467815.385	544620.383	3849.000000
467846.154	544620.383	3797.000000
467876.923	544620.383	3787.000000
467907.692	544620.383	3774.000000
467938.462	544620.383	3760.000000
467969.231	544620.383	3737.000000
468276.923	544620.383	3737.000000
468307.692	544620.383	3740.000000
468553.846	544620.383	3716.000000
468584.615	544620.383	3718.000000
468615.385	544620.383	3719.000000
468646.154	544620.383	3717.000000
468676.923	544620.383	3718.000000
467046.154	544651.163	4160.000000
467076.923	544651.163	4150.000000
467107.692	544651.163	4137.000000
467138.462	544651.163	4124.000000
467169.231	544651.163	4113.000000
467200.000	544651.163	4100.000000
467230.769	544651.163	4081.000000
467261.538	544651.163	4073.000000
467292.308	544651.163	4063.000000
467323.077	544651.163	4048.000000
467353.846	544651.163	4033.000000
467384.615	544651.163	4016.000000
467415.385	544651.163	3996.000000
467446.154	544651.163	3989.000000
467476.923	544651.163	3983.000000
467507.692	544651.163	3971.000000
467538.462	544651.163	3963.000000
467569.231	544651.163	3954.000000
467600.000	544651.163	3948.000000
467630.769	544651.163	3947.000000
467661.538	544651.163	3941.000000
467692.308	544651.163	3928.000000
467723.077	544651.163	3912.000000
467753.846	544651.163	3899.000000
467784.615	544651.163	3888.000000
467815.385	544651.163	3876.000000
467846.154	544651.163	3826.000000
467876.923	544651.163	3802.000000
467907.692	544651.163	3798.000000
467938.462	544651.163	3787.000000
467969.231	544651.163	3768.000000
468000.000	544651.163	3745.000000
468030.769	544651.163	3723.000000
468061.538	544651.163	3713.000000
468276.923	544651.163	3730.000000
468307.692	544651.163	3730.000000
468338.462	544651.163	3732.000000
468369.231	544651.163	3727.000000
468430.769	544651.163	3721.000000
468615.385	544651.163	3714.000000
468646.154	544651.163	3713.000000
468676.923	544651.163	3714.000000
467107.692	544681.943	4161.000000
467138.462	544681.943	4154.000000
467169.231	544681.943	4143.000000
467200.000	544681.943	4132.000000
467230.769	544681.943	4109.000000
467261.538	544681.943	4101.000000
467292.308	544681.943	4095.000000
467323.077	544681.943	4075.000000
467353.846	544681.943	4055.000000
467384.615	544681.943	4038.000000
467415.385	544681.943	4013.000000
467446.154	544681.943	4001.000000
467476.923	544681.943	3995.000000
467507.692	544681.943	3980.000000
467538.462	544681.943	3969.000000
467569.231	544681.943	3965.000000
467600.000	544681.943	3958.000000
467630.769	544681.943	3952.000000
467661.538	544681.943	3945.000000
467692.308	544681.943	3934.000000
467723.077	544681.943	3911.000000
467753.846	544681.943	3902.000000
467784.615	544681.943	3894.000000
467815.385	544681.943	3883.000000
467846.154	544681.943	3865.000000
467876.923	544681.943	3825.000000
467907.692	544681.943	3810.000000
467938.462	544681.943	3803.000000
467969.231	544681.943	3794.000000
468000.000	544681.943	3782.000000
468030.769	544681.943	3764.000000
468061.538	544681.943	3735.000000
468092.308	544681.943	3714.000000
468276.923	544681.943	3713.000000
468307.692	544681.943	3716.000000
468338.462	544681.943	3720.000000
468369.231	544681.943	3721.000000
468400.000	544681.943	3718.000000
468461.538	544681.943	3712.000000
468615.385	544681.943	3707.000000
468646.154	544681.943	3709.000000
468676.923	544681.943	3710.000000
467169.231	544712.722	4174.000000
467200.000	544712.722	4160.000000
467230.769	544712.722	4144.000000
467261.538	544712.722	4132.000000
467292.308	544712.722	4125.000000
467323.077	544712.722	4106.000000
467353.846	544712.722	4087.000000
467384.615	544712.722	4071.000000
467415.385	544712.722	4040.000000
467446.154	544712.722	4021.000000
467476.923	544712.722	4000.000000
467507.692	544712.722	3992.000000
467538.462	544712.722	3979.000000
467569.231	544712.722	3972.000000
467600.000	544712.722	3967.000000
467630.769	544712.722	3960.000000
467661.538	544712.722	3957.000000
467692.308	544712.722	3945.000000
467723.077	544712.722	3930.000000
467753.846	544712.722	3918.000000
467784.615	544712.722	3902.000000
467815.385	544712.722	3887.000000
467846.154	544712.722	3869.000000
467876.923	544712.722	3846.000000
467907.692	544712.722	3829.000000
467938.462	544712.722	3813.000000
467969.231	544712.722	3806.000000
468000.000	544712.722	3805.000000
468030.769	544712.722	3784.000000
468061.538	544712.722	3759.000000
468092.308	544712.722	3729.000000
468123.077	544712.722	3723.000000
468276.923	544712.722	3705.000000
468307.692	544712.722	3707.000000
468338.462	544712.722	3713.000000
468369.231	544712.722	3720.000000
468400.000	544712.722	3716.000000
468461.538	544712.722	3707.000000
468646.154	544712.722	3706.000000
468676.923	544712.722	3706.000000
467200.000	544743.502	4176.000000
467230.769	544743.502	4162.000000
467261.538	544743.502	4157.000000
467292.308	544743.502	4149.000000
467323.077	544743.502	4134.000000
467353.846	544743.502	4123.000000
467384.615	544743.502	4106.000000
467415.385	544743.502	4066.000000
467446.154	544743.502	4042.000000
467476.923	544743.502	4024.000000
467507.692	544743.502	4009.000000
467538.462	544743.502	4001.000000
467569.231	544743.502	3985.000000
467600.000	544743.502	3972.000000
467630.769	544743.502	3975.000000
467661.538	544743.502	3967.000000
467692.308	544743.502	3964.000000
467723.077	544743.502	3955.000000
467753.846	544743.502	3939.000000
467784.615	544743.502	3919.000000
467815.385	544743.502	3896.000000
467846.154	544743.502	3880.000000
467876.923	544743.502	3860.000000
467907.692	544743.502	3847.000000
467938.462	544743.502	3836.000000
467969.231	544743.502	3827.000000
468000.000	544743.502	3820.000000
468030.769	544743.502	3807.000000
468061.538	544743.502	3794.000000
468092.308	544743.502	3756.000000
468123.077	544743.502	3740.000000
468153.846	544743.502	3739.000000
468184.615	544743.502	3723.000000
468276.923	544743.502	3695.000000
468307.692	544743.502	3693.000000
468338.462	544743.502	3702.000000
468369.231	544743.502	3714.000000
468461.538	544743.502	3701.000000
468676.923	544743.502	3702.000000
468707.692	544743.502	3700.000000
467292.308	544774.282	4164.000000
467323.077	544774.282	4153.000000
467353.846	544774.282	4149.000000
467384.615	544774.282	4135.000000
467415.385	544774.282	4117.000000
467446.154	544774.282	4076.000000
467476.923	544774.282	4049.000000
467507.692	544774.282	4031.000000
467538.462	544774.282	4024.000000
467569.231	544774.282	4013.000000
467600.000	544774.282	4001.000000
467630.769	544774.282	3994.000000
467661.538	544774.282	3984.000000
467692.308	544774.282	3978.000000
467723.077	544774.282	3974.000000
467753.846	544774.282	3955.000000
467784.615	544774.282	3935.000000
467815.385	544774.282	3914.000000
467846.154	544774.282	3894.000000
467876.923	544774.282	3878.000000
467907.692	544774.282	3865.000000
467938.462	544774.282	3862.000000
467969.231	544774.282	3853.000000
468000.000	544774.282	3842.000000
468030.769	544774.282	3830.000000
468061.538	544774.282	3826.000000
468092.308	544774.282	3801.000000
468123.077	544774.282	3755.000000
468153.846	544774.282	3750.000000
468184.615	544774.282	3741.000000
468276.923	544774.282	3688.000000
468307.692	544774.282	3687.000000
468369.231	544774.282	3705.000000
468400.000	544774.282	3710.000000
468461.538	544774.282	3696.000000
468492.308	544774.282	3692.000000
468676.923	544774.282	3697.000000
467384.615	544805.062	4160.000000
467415.385	544805.062	4153.000000
467446.154	544805.062	4141.000000
467476.923	544805.062	4093.000000
467507.692	544805.062	4050.000000
467538.462	544805.062	4044.000000
467569.231	544805.062	4044.000000
467600.000	544805.062	4033.000000
467630.769	544805.062	4026.000000
467661.538	544805.062	4013.000000
467692.308	544805.062	4003.000000
467723.077	544805.062	3990.000000
467753.846	544805.062	3967.000000
467784.615	544805.062	3941.000000
467815.385	544805.062	3927.000000
467846.154	544805.062	3906.000000
467876.923	544805.062	3895.000000
467907.692	544805.062	3883.000000
467938.462	544805.062	3878.000000
467969.231	544805.062	3869.000000
468000.000	544805.062	3858.000000
468030.769	544805.062	3849.000000
468061.538	544805.062	3845.000000
468092.308	544805.062	3836.000000
468123.077	544805.062	3790.000000
468153.846	544805.062	3757.000000
468184.615	544805.062	3747.000000
468215.385	544805.062	3728.000000
468276.923	544805.062	3681.000000
468307.692	544805.062	3670.000000
468338.462	544805.062	3680.000000
468369.231	544805.062	3692.000000
468400.000	544805.062	3699.000000
468430.769	544805.062	3693.000000
468492.308	544805.062	3684.000000
468676.923	544805.062	3691.000000
467415.385	544835.841	4164.000000
467446.154	544835.841	4168.000000
467476.923	544835.841	4122.000000
467507.692	544835.841	4080.000000
467538.462	544835.841	4068.000000
467569.231	544835.841	4061.000000
467600.000	544835.841	4054.000000
467630.769	544835.841	4051.000000
467661.538	544835.841	4037.000000
467692.308	544835.841	4023.000000
467723.077	544835.841	4003.000000
467753.846	544835.841	3975.000000
467784.615	544835.841	3946.000000
467815.385	544835.841	3930.000000
467846.154	544835.841	3916.000000
467876.923	544835.841	3907.000000
467907.692	544835.841	3900.000000
467938.462	544835.841	3889.000000
467969.231	544835.841	3880.000000
468000.000	544835.841	3865.000000
468030.769	544835.841	3864.000000
468061.538	544835.841	3857.000000
468092.308	544835.841	3852.000000
468123.077	544835.841	3838.000000
468153.846	544835.841	3780.000000
468184.615	544835.841	3755.000000
468215.385	544835.841	3737.000000
468246.154	544835.841	3717.000000
468307.692	544835.841	3666.000000
468338.462	544835.841	3669.000000
468369.231	544835.841	3674.000000
468400.000	544835.841	3683.000000
468430.769	544835.841	3684.000000
468492.308	544835.841	3682.000000
467476.923	544866.621	4145.000000
467507.692	544866.621	4126.000000
