463169.231	540803.694	5044.000000
463200.000	540803.694	5059.000000
463230.769	540803.694	5074.000000
463261.538	540803.694	5087.000000
463292.308	540803.694	5095.000000
463323.077	540803.694	5111.000000
463353.846	540803.694	5128.000000
463384.615	540803.694	5150.000000
463415.385	540803.694	5171.000000
463446.154	540803.694	5190.000000
463476.923	540803.694	5200.000000
463507.692	540803.694	5210.000000
463538.462	540803.694	5218.000000
463569.231	540803.694	5231.000000
463600.000	540803.694	5238.000000
463630.769	540803.694	5240.000000
463661.538	540803.694	5239.000000
462553.846	540834.473	4916.000000
462646.154	540834.473	4952.000000
462676.923	540834.473	4959.000000
462707.692	540834.473	4957.000000
462738.462	540834.473	4960.000000
462769.231	540834.473	4961.000000
462800.000	540834.473	4965.000000
462830.769	540834.473	4973.000000
462861.538	540834.473	4983.000000
462892.308	540834.473	4980.000000
462923.077	540834.473	4977.000000
462953.846	540834.473	4982.000000
462984.615	540834.473	4988.000000
463015.385	540834.473	5000.000000
463046.154	540834.473	5004.000000
463076.923	540834.473	5006.000000
463107.692	540834.473	5020.000000
463138.462	540834.473	5031.000000
463169.231	540834.473	5042.000000
463200.000	540834.473	5053.000000
463230.769	540834.473	5070.000000
463261.538	540834.473	5082.000000
463292.308	540834.473	5092.000000
463323.077	540834.473	5106.000000
463353.846	540834.473	5123.000000
463384.615	540834.473	5148.000000
463415.385	540834.473	5168.000000
463446.154	540834.473	5184.000000
463476.923	540834.473	5195.000000
463507.692	540834.473	5203.000000
463538.462	540834.473	5209.000000
463569.231	540834.473	5222.000000
463600.000	540834.473	5233.000000
463630.769	540834.473	5235.000000
463661.538	540834.473	5235.000000
463692.308	540834.473	5241.000000
463723.077	540834.473	5245.000000
462523.077	540865.253	4906.000000
462553.846	540865.253	4912.000000
462584.615	540865.253	4922.000000
462615.385	540865.253	4936.000000
462646.154	540865.253	4946.000000
462676.923	540865.253	4953.000000
462707.692	540865.253	4954.000000
462738.462	540865.253	4951.000000
462769.231	540865.253	4955.000000
462800.000	540865.253	4957.000000
462830.769	540865.253	4960.000000
462861.538	540865.253	4964.000000
462892.308	540865.253	4966.000000
462923.077	540865.253	4963.000000
462953.846	540865.253	4966.000000
462984.615	540865.253	4975.000000
463015.385	540865.253	4982.000000
463046.154	540865.253	4992.000000
463076.923	540865.253	5003.000000
463107.692	540865.253	5012.000000
463138.462	540865.253	5028.000000
463169.231	540865.253	5041.000000
463200.000	540865.253	5049.000000
463230.769	540865.253	5061.000000
463261.538	540865.253	5081.000000
463292.308	540865.253	5089.000000
463323.077	540865.253	5100.000000
463353.846	540865.253	5125.000000
463384.615	540865.253	5140.000000
463415.385	540865.253	5155.000000
463446.154	540865.253	5174.000000
463476.923	540865.253	5193.000000
463507.692	540865.253	5199.000000
463538.462	540865.253	5201.000000
463569.231	540865.253	5213.000000
463600.000	540865.253	5223.000000
463630.769	540865.253	5228.000000
463661.538	540865.253	5234.000000
462523.077	540896.033	4904.000000
462553.846	540896.033	4911.000000
462584.615	540896.033	4917.000000
462615.385	540896.033	4926.000000
462646.154	540896.033	4932.000000
462676.923	540896.033	4933.000000
462707.692	540896.033	4937.000000
462738.462	540896.033	4944.000000
462830.769	540896.033	4948.000000
462861.538	540896.033	4954.000000
462892.308	540896.033	4956.000000
462923.077	540896.033	4951.000000
462953.846	540896.033	4956.000000
462984.615	540896.033	4963.000000
463015.385	540896.033	4968.000000
463046.154	540896.033	4982.000000
463076.923	540896.033	4996.000000
463107.692	540896.033	5018.000000
463138.462	540896.033	5028.000000
463169.231	540896.033	5036.000000
463200.000	540896.033	5046.000000
463230.769	540896.033	5064.000000
463261.538	540896.033	5079.000000
463292.308	540896.033	5087.000000
463323.077	540896.033	5096.000000
463353.846	540896.033	5117.000000
463384.615	540896.033	5129.000000
463415.385	540896.033	5145.000000
463446.154	540896.033	5163.000000
463476.923	540896.033	5181.000000
463507.692	540896.033	5192.000000
463538.462	540896.033	5197.000000
463569.231	540896.033	5206.000000
463600.000	540896.033	5216.000000
463630.769	540896.033	5218.000000
463661.538	540896.033	5225.000000
462523.077	540926.813	4895.000000
462553.846	540926.813	4903.000000
462584.615	540926.813	4904.000000
462615.385	540926.813	4909.000000
462646.154	540926.813	4918.000000
462676.923	540926.813	4917.000000
462707.692	540926.813	4922.000000
462769.231	540926.813	4942.000000
462800.000	540926.813	4938.000000
462830.769	540926.813	4937.000000
462861.538	540926.813	4941.000000
462892.308	540926.813	4942.000000
462923.077	540926.813	4939.000000
462953.846	540926.813	4945.000000
462984.615	540926.813	4952.000000
463015.385	540926.813	4963.000000
463046.154	540926.813	4970.000000
463076.923	540926.813	4993.000000
463107.692	540926.813	5017.000000
463138.462	540926.813	5026.000000
463169.231	540926.813	5035.000000
463200.000	540926.813	5045.000000
463230.769	540926.813	5064.000000
463261.538	540926.813	5072.000000
463292.308	540926.813	5081.000000
463323.077	540926.813	5093.000000
463353.846	540926.813	5108.000000
463384.615	540926.813	5120.000000
463415.385	540926.813	5134.000000
463446.154	540926.813	5151.000000
463476.923	540926.813	5169.000000
463507.692	540926.813	5184.000000
463538.462	540926.813	5192.000000
463569.231	540926.813	5201.000000
463600.000	540926.813	5207.000000
463630.769	540926.813	5210.000000
463661.538	540926.813	5216.000000
462492.308	540957.592	4876.000000
462523.077	540957.592	4884.000000
462553.846	540957.592	4888.000000
462584.615	540957.592	4888.000000
462646.154	540957.592	4906.000000
462769.231	540957.592	4933.000000
462800.000	540957.592	4923.000000
462830.769	540957.592	4925.000000
462861.538	540957.592	4929.000000
462892.308	540957.592	4930.000000
462923.077	540957.592	4931.000000
462984.615	540957.592	4948.000000
463015.385	540957.592	4960.000000
463046.154	540957.592	4969.000000
463076.923	540957.592	4989.000000
463107.692	540957.592	5008.000000
463138.462	540957.592	5021.000000
463169.231	540957.592	5031.000000
463200.000	540957.592	5042.000000
463230.769	540957.592	5053.000000
463261.538	540957.592	5057.000000
463292.308	540957.592	5071.000000
463323.077	540957.592	5085.000000
463353.846	540957.592	5097.000000
463384.615	540957.592	5115.000000
463415.385	540957.592	5131.000000
463446.154	540957.592	5141.000000
463476.923	540957.592	5156.000000
463507.692	540957.592	5176.000000
463538.462	540957.592	5189.000000
463569.231	540957.592	5197.000000
463600.000	540957.592	5202.000000
463630.769	540957.592	5206.000000
463661.538	540957.592	5213.000000
462707.692	540988.372	4915.000000
462738.462	540988.372	4919.000000
462769.231	540988.372	4917.000000
462800.000	540988.372	4913.000000
462830.769	540988.372	4914.000000
462861.538	540988.372	4919.000000
462892.308	540988.372	4922.000000
462953.846	540988.372	4932.000000
462984.615	540988.372	4944.000000
463015.385	540988.372	4954.000000
463046.154	540988.372	4965.000000
463076.923	540988.372	4987.000000
463107.692	540988.372	5001.000000
463138.462	540988.372	5009.000000
463169.231	540988.372	5019.000000
463200.000	540988.372	5037.000000
463230.769	540988.372	5048.000000
463261.538	540988.372	5052.000000
463292.308	540988.372	5066.000000
463323.077	540988.372	5082.000000
463353.846	540988.372	5093.000000
463384.615	540988.372	5105.000000
463415.385	540988.372	5125.000000
463446.154	540988.372	5137.000000
463476.923	540988.372	5150.000000
463507.692	540988.372	5172.000000
463538.462	540988.372	5189.000000
463569.231	540988.372	5197.000000
463600.000	540988.372	5202.000000
463630.769	540988.372	5210.000000
462646.154	541019.152	4893.000000
462676.923	541019.152	4899.000000
462707.692	541019.152	4907.000000
462738.462	541019.152	4907.000000
462769.231	541019.152	4905.000000
462800.000	541019.152	4908.000000
462830.769	541019.152	4907.000000
462861.538	541019.152	4910.000000
462953.846	541019.152	4931.000000
462984.615	541019.152	4940.000000
463015.385	541019.152	4950.000000
463046.154	541019.152	4960.000000
463076.923	541019.152	4984.000000
463107.692	541019.152	4996.000000
463138.462	541019.152	5002.000000
463169.231	541019.152	5010.000000
463200.000	541019.152	5020.000000
463230.769	541019.152	5039.000000
463261.538	541019.152	5051.000000
463292.308	541019.152	5062.000000
463323.077	541019.152	5078.000000
463353.846	541019.152	5092.000000
463384.615	541019.152	5106.000000
463415.385	541019.152	5119.000000
463446.154	541019.152	5135.000000
463476.923	541019.152	5152.000000
463507.692	541019.152	5170.000000
463538.462	541019.152	5186.000000
463569.231	541019.152	5194.000000
463600.000	541019.152	5200.000000
463630.769	541019.152	5206.000000
463661.538	541019.152	5210.000000
462615.385	541049.932	4887.000000
462646.154	541049.932	4893.000000
462676.923	541049.932	4894.000000
462707.692	541049.932	4895.000000
462738.462	541049.932	4893.000000
462769.231	541049.932	4894.000000
462800.000	541049.932	4899.000000
462830.769	541049.932	4899.000000
462861.538	541049.932	4900.000000
462892.308	541049.932	4905.000000
462923.077	541049.932	4915.000000
462953.846	541049.932	4923.000000
462984.615	541049.932	4934.000000
463015.385	541049.932	4946.000000
463046.154	541049.932	4956.000000
463076.923	541049.932	4976.000000
463107.692	541049.932	4989.000000
463138.462	541049.932	4999.000000
463169.231	541049.932	5007.000000
463200.000	541049.932	5016.000000
463230.769	541049.932	5030.000000
463261.538	541049.932	5052.000000
463292.308	541049.932	5060.000000
463323.077	541049.932	5072.000000
463353.846	541049.932	5089.000000
463384.615	541049.932	5107.000000
463415.385	541049.932	5118.000000
463446.154	541049.932	5134.000000
463476.923	541049.932	5153.000000
463507.692	541049.932	5166.000000
463538.462	541049.932	5179.000000
463569.231	541049.932	5189.000000
463600.000	541049.932	5197.000000
463630.769	541049.932	5203.000000
463661.538	541049.932	5210.000000
463692.308	541049.932	5218.000000
462523.077	541080.711	4861.000000
462553.846	541080.711	4870.000000
462584.615	541080.711	4878.000000
462615.385	541080.711	4882.000000
462646.154	541080.711	4882.000000
462676.923	541080.711	4881.000000
462707.692	541080.711	4882.000000
462738.462	541080.711	4883.000000
462769.231	541080.711	4884.000000
462800.000	541080.711	4887.000000
462830.769	541080.711	4890.000000
462861.538	541080.711	4893.000000
462892.308	541080.711	4901.000000
462923.077	541080.711	4911.000000
462953.846	541080.711	4917.000000
462984.615	541080.711	4926.000000
463015.385	541080.711	4941.000000
463046.154	541080.711	4953.000000
463076.923	541080.711	4970.000000
463107.692	541080.711	4982.000000
463138.462	541080.711	4993.000000
463169.231	541080.711	5003.000000
463200.000	541080.711	5011.000000
463230.769	541080.711	5027.000000
463261.538	541080.711	5045.000000
463292.308	541080.711	5062.000000
463323.077	541080.711	5072.000000
463353.846	541080.711	5085.000000
463384.615	541080.711	5101.000000
463415.385	541080.711	5117.000000
463446.154	541080.711	5134.000000
463476.923	541080.711	5149.000000
463507.692	541080.711	5163.000000
463538.462	541080.711	5173.000000
463569.231	541080.711	5182.000000
463600.000	541080.711	5196.000000
463630.769	541080.711	5202.000000
463661.538	541080.711	5208.000000
462461.538	541111.491	4850.000000
462492.308	541111.491	4854.000000
462523.077	541111.491	4861.000000
462553.846	541111.491	4864.000000
462584.615	541111.491	4869.000000
462615.385	541111.491	4872.000000
462646.154	541111.491	4868.000000
462676.923	541111.491	4867.000000
462707.692	541111.491	4870.000000
462738.462	541111.491	4875.000000
462800.000	541111.491	4879.000000
462861.538	541111.491	4890.000000
462892.308	541111.491	4899.000000
462923.077	541111.491	4909.000000
462953.846	541111.491	4912.000000
462984.615	541111.491	4919.000000
463015.385	541111.491	4934.000000
463046.154	541111.491	4952.000000
463076.923	541111.491	4962.000000
463107.692	541111.491	4975.000000
463138.462	541111.491	4987.000000
463169.231	541111.491	4998.000000
463200.000	541111.491	5007.000000
463230.769	541111.491	5020.000000
463261.538	541111.491	5034.000000
463292.308	541111.491	5059.000000
463323.077	541111.491	5071.000000
463353.846	541111.491	5079.000000
463384.615	541111.491	5097.000000
463415.385	541111.491	5115.000000
463446.154	541111.491	5129.000000
463476.923	541111.491	5144.000000
463507.692	541111.491	5160.000000
463569.231	541111.491	5175.000000
463600.000	541111.491	5193.000000
463630.769	541111.491	5201.000000
463661.538	541111.491	5203.000000
463692.308	541111.491	5208.000000
462461.538	541142.271	4840.000000
462492.308	541142.271	4844.000000
462523.077	541142.271	4850.000000
462553.846	541142.271	4856.000000
462584.615	541142.271	4856.000000
462615.385	541142.271	4863.000000
462646.154	541142.271	4859.000000
462676.923	541142.271	4856.000000
462707.692	541142.271	4862.000000
462738.462	541142.271	4867.000000
462769.231	541142.271	4868.000000
462861.538	541142.271	4885.000000
462892.308	541142.271	4892.000000
462923.077	541142.271	4899.000000
462953.846	541142.271	4908.000000
462984.615	541142.271	4917.000000
463015.385	541142.271	4933.000000
463046.154	541142.271	4953.000000
463076.923	541142.271	4959.000000
463107.692	541142.271	4971.000000
463138.462	541142.271	4985.000000
463169.231	541142.271	4994.000000
463200.000	541142.271	5004.000000
463230.769	541142.271	5017.000000
463261.538	541142.271	5027.000000
463292.308	541142.271	5042.000000
463323.077	541142.271	5064.000000
463353.846	541142.271	5078.000000
463384.615	541142.271	5093.000000
463415.385	541142.271	5107.000000
463446.154	541142.271	5120.000000
463476.923	541142.271	5134.000000
463507.692	541142.271	5153.000000
463538.462	541142.271	5164.000000
463569.231	541142.271	5174.000000
463600.000	541142.271	5190.000000
463630.769	541142.271	5198.000000
463661.538	541142.271	5200.000000
463692.308	541142.271	5207.000000
463723.077	541142.271	5213.000000
462430.769	541173.051	4836.000000
462461.538	541173.051	4833.000000
462492.308	541173.051	4832.000000
462523.077	541173.051	4844.000000
462553.846	541173.051	4846.000000
462584.615	541173.051	4847.000000
462615.385	541173.051	4849.000000
462646.154	541173.051	4850.000000
462676.923	541173.051	4849.000000
462707.692	541173.051	4856.000000
462738.462	541173.051	4862.000000
462769.231	541173.051	4864.000000
462861.538	541173.051	4878.000000
462892.308	541173.051	4885.000000
462923.077	541173.051	4889.000000
462953.846	541173.051	4903.000000
462984.615	541173.051	4915.000000
463015.385	541173.051	4931.000000
463046.154	541173.051	4947.000000
463076.923	541173.051	4957.000000
463107.692	541173.051	4970.000000
463138.462	541173.051	4981.000000
463169.231	541173.051	4987.000000
463200.000	541173.051	4997.000000
463230.769	541173.051	5012.000000
463261.538	541173.051	5023.000000
463292.308	541173.051	5036.000000
463323.077	541173.051	5053.000000
463353.846	541173.051	5072.000000
463384.615	541173.051	5085.000000
463415.385	541173.051	5098.000000
463446.154	541173.051	5115.000000
463476.923	541173.051	5133.000000
463507.692	541173.051	5145.000000
463538.462	541173.051	5162.000000
463569.231	541173.051	5177.000000
463600.000	541173.051	5184.000000
463630.769	541173.051	5194.000000
463661.538	541173.051	5206.000000
463692.308	541173.051	5211.000000
463723.077	541173.051	5213.000000
462430.769	541203.830	4830.000000
462461.538	541203.830	4829.000000
462492.308	541203.830	4829.000000
462523.077	541203.830	4839.000000
462553.846	541203.830	4843.000000
462584.615	541203.830	4840.000000
462615.385	541203.830	4841.000000
462646.154	541203.830	4844.000000
462676.923	541203.830	4847.000000
462707.692	541203.830	4851.000000
462738.462	541203.830	4856.000000
462769.231	541203.830	4858.000000
462830.769	541203.830	4870.000000
462861.538	541203.830	4876.000000
462892.308	541203.830	4881.000000
462923.077	541203.830	4893.000000
462953.846	541203.830	4904.000000
462984.615	541203.830	4914.000000
463015.385	541203.830	4927.000000
463046.154	541203.830	4944.000000
463076.923	541203.830	4955.000000
463107.692	541203.830	4968.000000
463138.462	541203.830	4976.000000
463169.231	541203.830	4981.000000
463200.000	541203.830	4987.000000
463230.769	541203.830	5001.000000
463261.538	541203.830	5014.000000
463292.308	541203.830	5030.000000
463323.077	541203.830	5045.000000
463353.846	541203.830	5062.000000
463384.615	541203.830	5075.000000
463415.385	541203.830	5088.000000
463446.154	541203.830	5111.000000
463476.923	541203.830	5135.000000
463507.692	541203.830	5144.000000
463538.462	541203.830	5157.000000
463569.231	541203.830	5170.000000
463600.000	541203.830	5180.000000
463630.769	541203.830	5194.000000
463661.538	541203.830	5208.000000
463692.308	541203.830	5211.000000
463723.077	541203.830	5210.000000
462430.769	541234.610	4817.000000
462461.538	541234.610	4826.000000
462492.308	541234.610	4829.000000
462523.077	541234.610	4832.000000
462553.846	541234.610	4836.000000
462584.615	541234.610	4835.000000
462615.385	541234.610	4836.000000
462646.154	541234.610	4839.000000
462676.923	541234.610	4845.000000
462707.692	541234.610	4847.000000
462738.462	541234.610	4850.000000
462769.231	541234.610	4852.000000
462861.538	541234.610	4872.000000
462892.308	541234.610	4880.000000
462923.077	541234.610	4896.000000
462953.846	541234.610	4906.000000
462984.615	541234.610	4914.000000
463015.385	541234.610	4923.000000
463046.154	541234.610	4938.000000
463076.923	541234.610	4950.000000
463107.692	541234.610	4959.000000
463138.462	541234.610	4967.000000
463169.231	541234.610	4973.000000
463200.000	541234.610	4981.000000
463230.769	541234.610	4992.000000
463261.538	541234.610	5005.000000
463292.308	541234.610	5020.000000
463323.077	541234.610	5040.000000
463353.846	541234.610	5056.000000
463384.615	541234.610	5066.000000
463415.385	541234.610	5084.000000
463446.154	541234.610	5108.000000
463476.923	541234.610	5132.000000
463507.692	541234.610	5145.000000
463538.462	541234.610	5152.000000
463569.231	541234.610	5163.000000
463600.000	541234.610	5180.000000
463630.769	541234.610	5190.000000
463661.538	541234.610	5199.000000
463692.308	541234.610	5201.000000
462430.769	541265.390	4815.000000
462461.538	541265.390	4825.000000
462492.308	541265.390	4825.000000
462523.077	541265.390	4823.000000
462553.846	541265.390	4826.000000
462584.615	541265.390	4829.000000
462615.385	541265.390	4826.000000
462646.154	541265.390	4834.000000
462676.923	541265.390	4842.000000
462707.692	541265.390	4845.000000
462738.462	541265.390	4846.000000
462769.231	541265.390	4848.000000
462861.538	541265.390	4870.000000
462892.308	541265.390	4878.000000
462923.077	541265.390	4889.000000
462953.846	541265.390	4902.000000
462984.615	541265.390	4909.000000
463015.385	541265.390	4917.000000
463046.154	541265.390	4929.000000
463076.923	541265.390	4939.000000
463107.692	541265.390	4949.000000
463138.462	541265.390	4955.000000
463169.231	541265.390	4963.000000
463200.000	541265.390	4977.000000
463230.769	541265.390	4988.000000
463261.538	541265.390	4998.000000
463292.308	541265.390	5014.000000
463323.077	541265.390	5031.000000
463353.846	541265.390	5050.000000
463384.615	541265.390	5066.000000
463415.385	541265.390	5084.000000
463446.154	541265.390	5100.000000
463476.923	541265.390	5124.000000
463507.692	541265.390	5139.000000
463538.462	541265.390	5144.000000
463569.231	541265.390	5158.000000
463600.000	541265.390	5176.000000
463661.538	541265.390	5191.000000
463692.308	541265.390	5197.000000
462400.000	541296.170	4805.000000
462430.769	541296.170	4813.000000
462461.538	541296.170	4823.000000
462492.308	541296.170	4823.000000
462523.077	541296.170	4815.000000
462553.846	541296.170	4816.000000
462584.615	541296.170	4820.000000
462615.385	541296.170	4820.000000
462646.154	541296.170	4825.000000
462676.923	541296.170	4835.000000
462707.692	541296.170	4843.000000
462738.462	541296.170	4842.000000
462769.231	541296.170	4844.000000
462830.769	541296.170	4857.000000
462861.538	541296.170	4867.000000
462892.308	541296.170	4877.000000
462923.077	541296.170	4884.000000
462953.846	541296.170	4892.000000
462984.615	541296.170	4903.000000
463015.385	541296.170	4912.000000
463046.154	541296.170	4922.000000
463076.923	541296.170	4931.000000
463107.692	541296.170	4942.000000
463138.462	541296.170	4950.000000
463169.231	541296.170	4958.000000
463200.000	541296.170	4973.000000
463230.769	541296.170	4986.000000
463261.538	541296.170	4998.000000
463292.308	541296.170	5010.000000
463323.077	541296.170	5026.000000
463353.846	541296.170	5042.000000
463384.615	541296.170	5062.000000
463415.385	541296.170	5080.000000
463446.154	541296.170	5100.000000
463476.923	541296.170	5116.000000
463507.692	541296.170	5130.000000
463538.462	541296.170	5137.000000
463569.231	541296.170	5147.000000
463600.000	541296.170	5166.000000
463630.769	541296.170	5176.000000
463661.538	541296.170	5185.000000
463692.308	541296.170	5194.000000
463723.077	541296.170	5203.000000
462430.769	541326.949	4807.000000
462461.538	541326.949	4812.000000
462492.308	541326.949	4814.000000
462523.077	541326.949	4810.000000
462553.846	541326.949	4809.000000
462584.615	541326.949	4811.000000
462615.385	541326.949	4814.000000
462646.154	541326.949	4820.000000
462676.923	541326.949	4829.000000
462707.692	541326.949	4837.000000
462738.462	541326.949	4835.000000
462769.231	541326.949	4836.000000
462861.538	541326.949	4862.000000
462892.308	541326.949	4875.000000
462923.077	541326.949	4880.000000
462953.846	541326.949	4888.000000
462984.615	541326.949	4897.000000
463015.385	541326.949	4907.000000
463046.154	541326.949	4917.000000
463076.923	541326.949	4927.000000
463107.692	541326.949	4938.000000
463138.462	541326.949	4950.000000
463169.231	541326.949	4958.000000
463200.000	541326.949	4967.000000
463230.769	541326.949	4987.000000
463261.538	541326.949	4997.000000
463292.308	541326.949	5004.000000
463323.077	541326.949	5016.000000
463353.846	541326.949	5032.000000
463384.615	541326.949	5047.000000
463415.385	541326.949	5071.000000
463446.154	541326.949	5095.000000
463476.923	541326.949	5112.000000
463507.692	541326.949	5124.000000
463538.462	541326.949	5131.000000
463569.231	541326.949	5138.000000
463600.000	541326.949	5153.000000
463630.769	541326.949	5169.000000
463661.538	541326.949	5177.000000
463692.308	541326.949	5191.000000
463723.077	541326.949	5200.000000
463753.846	541326.949	5210.000000
463784.615	541326.949	5211.000000
463815.385	541326.949	5215.000000
462430.769	541357.729	4803.000000
462461.538	541357.729	4805.000000
462492.308	541357.729	4803.000000
462523.077	541357.729	4802.000000
462615.385	541357.729	4807.000000
462646.154	541357.729	4815.000000
462676.923	541357.729	4821.000000
462707.692	541357.729	4823.000000
462738.462	541357.729	4825.000000
462830.769	541357.729	4847.000000
462861.538	541357.729	4855.000000
462892.308	541357.729	4866.000000
462923.077	541357.729	4875.000000
462953.846	541357.729	4883.000000
462984.615	541357.729	4893.000000
463015.385	541357.729	4902.000000
463046.154	541357.729	4914.000000
463076.923	541357.729	4926.000000
463107.692	541357.729	4937.000000
463138.462	541357.729	4948.000000
463169.231	541357.729	4960.000000
463200.000	541357.729	4971.000000
463230.769	541357.729	4986.000000
463261.538	541357.729	4994.000000
463292.308	541357.729	4999.000000
463323.077	541357.729	5011.000000
463353.846	541357.729	5021.000000
463384.615	541357.729	5035.000000
463415.385	541357.729	5057.000000
463446.154	541357.729	5080.000000
463476.923	541357.729	5102.000000
463507.692	541357.729	5111.000000
463569.231	541357.729	5129.000000
463600.000	541357.729	5146.000000
463630.769	541357.729	5161.000000
463661.538	541357.729	5176.000000
463692.308	541357.729	5185.000000
463723.077	541357.729	5198.000000
463753.846	541357.729	5209.000000
463784.615	541357.729	5213.000000
463815.385	541357.729	5215.000000
462492.308	541388.509	4795.000000
462584.615	541388.509	4795.000000
462615.385	541388.509	4802.000000
462646.154	541388.509	4811.000000
462676.923	541388.509	4813.000000
462707.692	541388.509	4817.000000
462769.231	541388.509	4821.000000
462830.769	541388.509	4838.000000
462861.538	541388.509	4848.000000
462892.308	541388.509	4858.000000
462923.077	541388.509	4868.000000
462953.846	541388.509	4879.000000
462984.615	541388.509	4891.000000
463015.385	541388.509	4905.000000
463046.154	541388.509	4916.000000
463076.923	541388.509	4926.000000
463107.692	541388.509	4937.000000
463138.462	541388.509	4946.000000
463169.231	541388.509	4958.000000
463200.000	541388.509	4966.000000
463230.769	541388.509	4980.000000
463261.538	541388.509	4986.000000
463292.308	541388.509	4994.000000
463323.077	541388.509	5006.000000
463353.846	541388.509	5017.000000
463384.615	541388.509	5028.000000
463415.385	541388.509	5048.000000
463446.154	541388.509	5068.000000
463476.923	541388.509	5081.000000
463507.692	541388.509	5091.000000
463538.462	541388.509	5100.000000
463569.231	541388.509	5118.000000
463600.000	541388.509	5130.000000
463630.769	541388.509	5146.000000
463661.538	541388.509	5160.000000
463692.308	541388.509	5174.000000
463723.077	541388.509	5190.000000
463753.846	541388.509	5206.000000
463784.615	541388.509	5210.000000
463815.385	541388.509	5212.000000
462430.769	541419.289	4792.000000
462461.538	541419.289	4787.000000
462492.308	541419.289	4789.000000
462553.846	541419.289	4798.000000
462584.615	541419.289	4796.000000
462615.385	541419.289	4798.000000
462646.154	541419.289	4806.000000
462676.923	541419.289	4809.000000
462707.692	541419.289	4815.000000
462738.462	541419.289	4819.000000
462769.231	541419.289	4820.000000
462830.769	541419.289	4830.000000
462861.538	541419.289	4839.000000
462892.308	541419.289	4854.000000
462923.077	541419.289	4864.000000
462953.846	541419.289	4875.000000
462984.615	541419.289	4888.000000
463015.385	541419.289	4905.000000
463046.154	541419.289	4918.000000
463076.923	541419.289	4924.000000
463107.692	541419.289	4932.000000
463138.462	541419.289	4942.000000
463169.231	541419.289	4952.000000
463200.000	541419.289	4961.000000
463230.769	541419.289	4970.000000
463261.538	541419.289	4977.000000
463292.308	541419.289	4986.000000
463323.077	541419.289	5000.000000
463353.846	541419.289	5012.000000
463384.615	541419.289	5023.000000
463415.385	541419.289	5037.000000
463446.154	541419.289	5053.000000
463476.923	541419.289	5068.000000
463507.692	541419.289	5074.000000
463538.462	541419.289	5085.000000
463569.231	541419.289	5103.000000
463692.308	541419.289	5162.000000
463723.077	541419.289	5184.000000
463753.846	541419.289	5200.000000
463784.615	541419.289	5205.000000
463815.385	541419.289	5209.000000
462492.308	541450.068	4789.000000
462523.077	541450.068	4796.000000
462553.846	541450.068	4798.000000
462584.615	541450.068	4791.000000
462646.154	541450.068	4799.000000
462676.923	541450.068	4806.000000
462707.692	541450.068	4815.000000
462738.462	541450.068	4819.000000
462769.231	541450.068	4822.000000
462830.769	541450.068	4827.000000
462861.538	541450.068	4837.000000
462892.308	541450.068	4858.000000
462923.077	541450.068	4867.000000
462953.846	541450.068	4873.000000
462984.615	541450.068	4884.000000
463015.385	541450.068	4899.000000
463046.154	541450.068	4909.000000
463076.923	541450.068	4917.000000
463107.692	541450.068	4925.000000
463138.462	541450.068	4936.000000
463169.231	541450.068	4945.000000
463200.000	541450.068	4956.000000
463230.769	541450.068	4964.000000
463261.538	541450.068	4970.000000
463323.077	541450.068	4990.000000
463353.846	541450.068	5002.000000
463384.615	541450.068	5016.000000
463415.385	541450.068	5024.000000
463446.154	541450.068	5036.000000
463476.923	541450.068	5055.000000
463507.692	541450.068	5061.000000
463538.462	541450.068	5068.000000
463569.231	541450.068	5089.000000
463692.308	541450.068	5150.000000
463723.077	541450.068	5170.000000
463753.846	541450.068	5193.000000
463784.615	541450.068	5201.000000
463815.385	541450.068	5205.000000
463846.154	541450.068	5211.000000
462461.538	541480.848	4783.000000
462492.308	541480.848	4792.000000
462523.077	541480.848	4793.000000
462553.846	541480.848	4788.000000
462615.385	541480.848	4790.000000
462646.154	541480.848	4796.000000
462707.692	541480.848	4814.000000
462738.462	541480.848	4820.000000
462769.231	541480.848	4825.000000
462892.308	541480.848	4858.000000
462923.077	541480.848	4869.000000
462953.846	541480.848	4873.000000
462984.615	541480.848	4882.000000
463015.385	541480.848	4893.000000
463046.154	541480.848	4903.000000
463076.923	541480.848	4910.000000
463107.692	541480.848	4921.000000
463138.462	541480.848	4929.000000
463169.231	541480.848	4937.000000
463200.000	541480.848	4951.000000
463230.769	541480.848	4959.000000
463323.077	541480.848	4979.000000
463353.846	541480.848	4992.000000
463384.615	541480.848	5005.000000
463415.385	541480.848	5014.000000
463446.154	541480.848	5027.000000
463476.923	541480.848	5044.000000
463507.692	541480.848	5051.000000
463538.462	541480.848	5058.000000
463569.231	541480.848	5080.000000
463630.769	541480.848	5109.000000
463661.538	541480.848	5131.000000
463692.308	541480.848	5148.000000
463723.077	541480.848	5167.000000
463753.846	541480.848	5191.000000
463784.615	541480.848	5200.000000
463815.385	541480.848	5208.000000
463846.154	541480.848	5219.000000
462461.538	541511.628	4781.000000
462492.308	541511.628	4785.000000
462615.385	541511.628	4790.000000
462646.154	541511.628	4797.000000
462676.923	541511.628	4802.000000
462707.692	541511.628	4810.000000
462738.462	541511.628	4817.000000
462769.231	541511.628	4825.000000
462800.000	541511.628	4832.000000
462830.769	541511.628	4835.000000
462861.538	541511.628	4840.000000
462892.308	541511.628	4850.000000
462923.077	541511.628	4864.000000
462953.846	541511.628	4872.000000
462984.615	541511.628	4881.000000
463015.385	541511.628	4892.000000
463076.923	541511.628	4910.000000
463107.692	541511.628	4918.000000
463138.462	541511.628	4922.000000
463169.231	541511.628	4930.000000
463200.000	541511.628	4942.000000
463323.077	541511.628	4975.000000
463353.846	541511.628	4988.000000
463384.615	541511.628	4996.000000
463415.385	541511.628	5006.000000
463446.154	541511.628	5020.000000
463476.923	541511.628	5032.000000
463507.692	541511.628	5042.000000
463538.462	541511.628	5057.000000
463569.231	541511.628	5075.000000
463600.000	541511.628	5087.000000
463630.769	541511.628	5100.000000
463661.538	541511.628	5121.000000
463692.308	541511.628	5143.000000
463723.077	541511.628	5169.000000
463753.846	541511.628	5188.000000
463784.615	541511.628	5198.000000
463815.385	541511.628	5209.000000
463846.154	541511.628	5221.000000
462430.769	541542.408	4778.000000
462461.538	541542.408	4778.000000
462553.846	541542.408	4786.000000
462584.615	541542.408	4788.000000
462615.385	541542.408	4792.000000
462646.154	541542.408	4799.000000
462676.923	541542.408	4805.000000
462707.692	541542.408	4807.000000
462738.462	541542.408	4815.000000
462769.231	541542.408	4821.000000
462800.000	541542.408	4831.000000
462830.769	541542.408	4837.000000
462861.538	541542.408	4841.000000
462892.308	541542.408	4846.000000
462923.077	541542.408	4859.000000
462953.846	541542.408	4869.000000
462984.615	541542.408	4882.000000
463015.385	541542.408	4893.000000
463046.154	541542.408	4901.000000
463076.923	541542.408	4910.000000
463107.692	541542.408	4904.000000
463138.462	541542.408	4911.000000
463169.231	541542.408	4922.000000
463292.308	541542.408	4959.000000
463323.077	541542.408	4970.000000
463353.846	541542.408	4981.000000
463384.615	541542.408	4992.000000
463415.385	541542.408	5003.000000
463446.154	541542.408	5013.000000
463476.923	541542.408	5022.000000
463507.692	541542.408	5033.000000
463538.462	541542.408	5054.000000
463569.231	541542.408	5072.000000
463630.769	541542.408	5098.000000
463661.538	541542.408	5118.000000
463692.308	541542.408	5143.000000
463723.077	541542.408	5169.000000
463753.846	541542.408	5189.000000
463784.615	541542.408	5197.000000
463815.385	541542.408	5206.000000
463846.154	541542.408	5221.000000
463876.923	541542.408	5218.000000
462430.769	541573.187	4770.000000
462461.538	541573.187	4774.000000
462553.846	541573.187	4786.000000
462584.615	541573.187	4789.000000
462615.385	541573.187	4795.000000
462646.154	541573.187	4802.000000
462676.923	541573.187	4808.000000
462707.692	541573.187	4809.000000
462738.462	541573.187	4814.000000
462769.231	541573.187	4819.000000
462800.000	541573.187	4830.000000
462830.769	541573.187	4839.000000
462861.538	541573.187	4842.000000
462892.308	541573.187	4851.000000
462923.077	541573.187	4858.000000
462953.846	541573.187	4866.000000
463015.385	541573.187	4888.000000
463046.154	541573.187	4892.000000
463076.923	541573.187	4896.000000
463107.692	541573.187	4890.000000
463323.077	541573.187	4960.000000
463353.846	541573.187	4973.000000
463384.615	541573.187	4983.000000
463415.385	541573.187	5002.000000
463446.154	541573.187	5008.000000
463476.923	541573.187	5016.000000
463507.692	541573.187	5029.000000
463538.462	541573.187	5050.000000
463569.231	541573.187	5068.000000
463600.000	541573.187	5080.000000
463630.769	541573.187	5094.000000
463661.538	541573.187	5116.000000
463692.308	541573.187	5138.000000
463723.077	541573.187	5167.000000
463753.846	541573.187	5191.000000
463784.615	541573.187	5201.000000
463815.385	541573.187	5210.000000
463846.154	541573.187	5219.000000
463876.923	541573.187	5217.000000
463907.692	541573.187	5214.000000
462523.077	541603.967	4782.000000
462553.846	541603.967	4789.000000
462584.615	541603.967	4793.000000
462615.385	541603.967	4799.000000
462646.154	541603.967	4804.000000
462676.923	541603.967	4810.000000
462707.692	541603.967	4812.000000
462738.462	541603.967	4817.000000
462769.231	541603.967	4820.000000
462800.000	541603.967	4835.000000
462830.769	541603.967	4839.000000
462861.538	541603.967	4840.000000
462892.308	541603.967	4847.000000
462923.077	541603.967	4856.000000
462984.615	541603.967	4873.000000
463015.385	541603.967	4877.000000
463046.154	541603.967	4882.000000
463076.923	541603.967	4877.000000
463323.077	541603.967	4953.000000
463353.846	541603.967	4967.000000
463384.615	541603.967	4984.000000
463415.385	541603.967	4996.000000
463446.154	541603.967	5003.000000
463476.923	541603.967	5013.000000
463507.692	541603.967	5027.000000
463538.462	541603.967	5047.000000
463569.231	541603.967	5061.000000
463600.000	541603.967	5077.000000
463630.769	541603.967	5095.000000
463661.538	541603.967	5114.000000
463692.308	541603.967	5136.000000
463723.077	541603.967	5165.000000
463753.846	541603.967	5189.000000
463784.615	541603.967	5201.000000
463815.385	541603.967	5211.000000
463846.154	541603.967	5220.000000
463876.923	541603.967	5217.000000
463907.692	541603.967	5213.000000
462461.538	541634.747	4773.000000
462492.308	541634.747	4778.000000
462523.077	541634.747	4786.000000
462553.846	541634.747	4793.000000
462584.615	541634.747	4796.000000
462615.385	541634.747	4803.000000
462646.154	541634.747	4807.000000
462676.923	541634.747	4812.000000
462707.692	541634.747	4818.000000
462738.462	541634.747	4820.000000
462769.231	541634.747	4826.000000
462800.000	541634.747	4836.000000
462830.769	541634.747	4838.000000
462861.538	541634.747	4840.000000
462892.308	541634.747	4845.000000
462984.615	541634.747	4862.000000
463015.385	541634.747	4872.000000
463046.154	541634.747	4876.000000
463323.077	541634.747	4950.000000
463353.846	541634.747	4961.000000
463384.615	541634.747	4980.000000
463415.385	541634.747	4992.000000
463446.154	541634.747	5000.000000
463476.923	541634.747	5011.000000
463507.692	541634.747	5026.000000
463538.462	541634.747	5042.000000
463569.231	541634.747	5058.000000
463600.000	541634.747	5078.000000
463630.769	541634.747	5098.000000
463661.538	541634.747	5115.000000
463692.308	541634.747	5134.000000
463723.077	541634.747	5148.000000
463753.846	541634.747	5183.000000
463784.615	541634.747	5197.000000
463815.385	541634.747	5211.000000
463846.154	541634.747	5220.000000
463876.923	541634.747	5217.000000
463907.692	541634.747	5213.000000
462461.538	541665.527	4774.000000
462492.308	541665.527	4780.000000
462523.077	541665.527	4785.000000
462553.846	541665.527	4796.000000
462584.615	541665.527	4801.000000
462615.385	541665.527	4807.000000
462646.154	541665.527	4813.000000
462676.923	541665.527	4816.000000
462707.692	541665.527	4820.000000
462738.462	541665.527	4821.000000
462769.231	541665.527	4824.000000
462800.000	541665.527	4833.000000
462830.769	541665.527	4842.000000
462861.538	541665.527	4844.000000
462984.615	541665.527	4846.000000
463015.385	541665.527	4855.000000
463323.077	541665.527	4948.000000
463353.846	541665.527	4962.000000
463384.615	541665.527	4973.000000
463415.385	541665.527	4986.000000
463446.154	541665.527	4998.000000
463476.923	541665.527	5010.000000
463507.692	541665.527	5023.000000
463538.462	541665.527	5034.000000
463569.231	541665.527	5054.000000
463600.000	541665.527	5079.000000
463630.769	541665.527	5099.000000
463661.538	541665.527	5116.000000
463692.308	541665.527	5131.000000
463723.077	541665.527	5150.000000
463753.846	541665.527	5173.000000
463784.615	541665.527	5187.000000
463815.385	541665.527	5205.000000
463846.154	541665.527	5217.000000
463876.923	541665.527	5217.000000
462461.538	541696.306	4774.000000
462492.308	541696.306	4783.000000
462523.077	541696.306	4789.000000
462553.846	541696.306	4799.000000
462584.615	541696.306	4805.000000
462615.385	541696.306	4810.000000
462646.154	541696.306	4816.000000
462676.923	541696.306	4820.000000
462707.692	541696.306	4822.000000
462738.462	541696.306	4820.000000
462769.231	541696.306	4823.000000
462800.000	541696.306	4833.000000
462830.769	541696.306	4841.000000
463292.308	541696.306	4932.000000
463323.077	541696.306	4944.000000
463353.846	541696.306	4956.000000
463384.615	541696.306	4965.000000
463415.385	541696.306	4979.000000
463446.154	541696.306	4995.000000
463476.923	541696.306	5010.000000
463507.692	541696.306	5022.000000
463538.462	541696.306	5032.000000
463569.231	541696.306	5053.000000
463600.000	541696.306	5078.000000
463630.769	541696.306	5098.000000
463661.538	541696.306	5109.000000
463692.308	541696.306	5126.000000
463723.077	541696.306	5153.000000
463753.846	541696.306	5165.000000
463784.615	541696.306	5175.000000
463815.385	541696.306	5196.000000
463846.154	541696.306	5211.000000
463876.923	541696.306	5215.000000
462461.538	541727.086	4775.000000
462492.308	541727.086	4788.000000
462523.077	541727.086	4795.000000
462553.846	541727.086	4800.000000
462584.615	541727.086	4804.000000
462615.385	541727.086	4809.000000
462646.154	541727.086	4817.000000
462738.462	541727.086	4819.000000
462769.231	541727.086	4822.000000
462800.000	541727.086	4837.000000
462830.769	541727.086	4828.000000
463230.769	541727.086	4901.000000
463261.538	541727.086	4913.000000
463292.308	541727.086	4926.000000
463323.077	541727.086	4939.000000
463353.846	541727.086	4950.000000
463384.615	541727.086	4960.000000
463415.385	541727.086	4975.000000
463446.154	541727.086	4995.000000
463476.923	541727.086	5011.000000
463507.692	541727.086	5021.000000
463538.462	541727.086	5031.000000
463569.231	541727.086	5053.000000
463600.000	541727.086	5075.000000
463630.769	541727.086	5097.000000
463661.538	541727.086	5106.000000
463692.308	541727.086	5118.000000
463723.077	541727.086	5140.000000
463753.846	541727.086	5161.000000
463784.615	541727.086	5171.000000
463815.385	541727.086	5187.000000
463846.154	541727.086	5206.000000
463876.923	541727.086	5212.000000
463907.692	541727.086	5209.000000
462492.308	541757.866	4788.000000
462523.077	541757.866	4794.000000
462553.846	541757.866	4795.000000
462584.615	541757.866	4800.000000
462615.385	541757.866	4806.000000
462769.231	541757.866	4819.000000
463200.000	541757.866	4880.000000
463230.769	541757.866	4892.000000
463261.538	541757.866	4904.000000
463292.308	541757.866	4924.000000
463323.077	541757.866	4936.000000
463353.846	541757.866	4948.000000
463384.615	541757.866	4960.000000
463415.385	541757.866	4975.000000
463446.154	541757.866	4994.000000
463476.923	541757.866	5008.000000
463507.692	541757.866	5019.000000
463538.462	541757.866	5033.000000
463569.231	541757.866	5054.000000
463600.000	541757.866	5071.000000
463630.769	541757.866	5091.000000
463661.538	541757.866	5103.000000
463692.308	541757.866	5115.000000
463723.077	541757.866	5131.000000
463753.846	541757.866	5156.000000
463784.615	541757.866	5166.000000
463815.385	541757.866	5177.000000
463846.154	541757.866	5193.000000
463876.923	541757.866	5213.000000
463907.692	541757.866	5215.000000
462492.308	541788.646	4789.000000
462523.077	541788.646	4792.000000
462553.846	541788.646	4793.000000
463200.000	541788.646	4869.000000
463230.769	541788.646	4883.000000
463261.538	541788.646	4896.000000
463292.308	541788.646	4917.000000
463323.077	541788.646	4934.000000
463353.846	541788.646	4946.000000
463384.615	541788.646	4963.000000
463415.385	541788.646	4975.000000
463446.154	541788.646	4993.000000
463476.923	541788.646	5010.000000
463507.692	541788.646	5023.000000
463538.462	541788.646	5037.000000
463569.231	541788.646	5055.000000
463600.000	541788.646	5068.000000
463630.769	541788.646	5079.000000
463661.538	541788.646	5093.000000
463692.308	541788.646	5103.000000
463723.077	541788.646	5118.000000
463753.846	541788.646	5144.000000
463784.615	541788.646	5157.000000
463815.385	541788.646	5166.000000
463846.154	541788.646	5182.000000
463876.923	541788.646	5206.000000
462492.308	541819.425	4790.000000
462523.077	541819.425	4793.000000
462615.385	541819.425	4803.000000
462646.154	541819.425	4807.000000
463261.538	541819.425	4897.000000
463292.308	541819.425	4916.000000
463323.077	541819.425	4932.000000
463353.846	541819.425	4948.000000
463384.615	541819.425	4964.000000
463415.385	541819.425	4974.000000
463446.154	541819.425	4992.000000
463476.923	541819.425	5014.000000
463507.692	541819.425	5023.000000
463538.462	541819.425	5036.000000
463569.231	541819.425	5052.000000
463600.000	541819.425	5061.000000
463630.769	541819.425	5069.000000
463661.538	541819.425	5080.000000
463692.308	541819.425	5088.000000
463723.077	541819.425	5106.000000
463753.846	541819.425	5131.000000
463784.615	541819.425	5145.000000
463815.385	541819.425	5153.000000
463846.154	541819.425	5176.000000
463876.923	541819.425	5196.000000
463907.692	541819.425	5207.000000
462523.077	541850.205	4791.000000
462553.846	541850.205	4798.000000
462584.615	541850.205	4801.000000
462615.385	541850.205	4801.000000
462646.154	541850.205	4800.000000
463261.538	541850.205	4896.000000
463292.308	541850.205	4914.000000
463323.077	541850.205	4935.000000
463353.846	541850.205	4949.000000
463384.615	541850.205	4958.000000
463415.385	541850.205	4968.000000
463446.154	541850.205	4993.000000
463476.923	541850.205	5014.000000
463507.692	541850.205	5023.000000
463538.462	541850.205	5033.000000
463569.231	541850.205	5044.000000
463600.000	541850.205	5053.000000
463630.769	541850.205	5058.000000
463661.538	541850.205	5067.000000
463692.308	541850.205	5084.000000
463723.077	541850.205	5099.000000
463784.615	541850.205	5132.000000
463815.385	541850.205	5142.000000
463846.154	541850.205	5164.000000
463876.923	541850.205	5188.000000
463907.692	541850.205	5194.000000
463938.462	541850.205	5204.000000
462523.077	541880.985	4785.000000
462553.846	541880.985	4794.000000
462584.615	541880.985	4800.000000
462615.385	541880.985	4798.000000
462646.154	541880.985	4797.000000
463230.769	541880.985	4881.000000
463261.538	541880.985	4897.000000
463292.308	541880.985	4907.000000
463323.077	541880.985	4923.000000
463353.846	541880.985	4946.000000
463384.615	541880.985	4957.000000
463415.385	541880.985	4964.000000
463446.154	541880.985	4987.000000
463476.923	541880.985	5007.000000
463507.692	541880.985	5022.000000
463538.462	541880.985	5030.000000
463569.231	541880.985	5033.000000
463600.000	541880.985	5042.000000
463630.769	541880.985	5046.000000
463661.538	541880.985	5054.000000
463692.308	541880.985	5070.000000
463723.077	541880.985	5088.000000
463753.846	541880.985	5107.000000
463815.385	541880.985	5130.000000
463846.154	541880.985	5148.000000
463876.923	541880.985	5171.000000
463907.692	541880.985	5185.000000
463938.462	541880.985	5195.000000
462523.077	541911.765	4786.000000
462553.846	541911.765	4788.000000
463200.000	541911.765	4860.000000
463230.769	541911.765	4881.000000
463261.538	541911.765	4899.000000
463292.308	541911.765	4904.000000
463323.077	541911.765	4916.000000
463353.846	541911.765	4939.000000
463384.615	541911.765	4956.000000
463415.385	541911.765	4969.000000
463446.154	541911.765	4982.000000
463476.923	541911.765	4994.000000
463507.692	541911.765	5007.000000
463538.462	541911.765	5017.000000
463569.231	541911.765	5016.000000
463600.000	541911.765	5028.000000
463692.308	541911.765	5060.000000
463723.077	541911.765	5073.000000
463753.846	541911.765	5094.000000
463784.615	541911.765	5107.000000
463815.385	541911.765	5118.000000
463846.154	541911.765	5135.000000
463876.923	541911.765	5156.000000
463907.692	541911.765	5170.000000
463938.462	541911.765	5181.000000
463969.231	541911.765	5186.000000
463200.000	541942.544	4861.000000
463230.769	541942.544	4879.000000
463261.538	541942.544	4896.000000
463292.308	541942.544	4905.000000
463323.077	541942.544	4917.000000
463353.846	541942.544	4929.000000
463384.615	541942.544	4948.000000
463415.385	541942.544	4966.000000
463446.154	541942.544	4978.000000
463476.923	541942.544	4988.000000
463507.692	541942.544	4996.000000
463538.462	541942.544	4997.000000
463569.231	541942.544	5001.000000
463692.308	541942.544	5053.000000
463723.077	541942.544	5069.000000
463753.846	541942.544	5084.000000
463784.615	541942.544	5096.000000
463815.385	541942.544	5104.000000
463846.154	541942.544	5124.000000
463876.923	541942.544	5143.000000
463907.692	541942.544	5157.000000
463938.462	541942.544	5165.000000
463969.231	541942.544	5170.000000
463230.769	541973.324	4873.000000
463261.538	541973.324	4889.000000
463292.308	541973.324	4905.000000
463323.077	541973.324	4920.000000
463353.846	541973.324	4923.000000
463384.615	541973.324	4939.000000
463415.385	541973.324	4954.000000
463446.154	541973.324	4969.000000
463476.923	541973.324	4980.000000
463507.692	541973.324	4991.000000
463538.462	541973.324	4996.000000
463569.231	541973.324	4995.000000
463784.615	541973.324	5078.000000
463815.385	541973.324	5086.000000
463846.154	541973.324	5110.000000
463907.692	541973.324	5139.000000
463969.231	541973.324	5150.000000
463230.769	542004.104	4874.000000
463261.538	542004.104	4886.000000
463292.308	542004.104	4902.000000
463323.077	542004.104	4917.000000
463353.846	542004.104	4923.000000
463384.615	542004.104	4934.000000
463415.385	542004.104	4946.000000
463446.154	542004.104	4962.000000
463476.923	542004.104	4974.000000
463507.692	542004.104	4985.000000
463815.385	542004.104	5069.000000
463846.154	542004.104	5090.000000
463938.462	542004.104	5135.000000
463969.231	542004.104	5135.000000
463200.000	542034.884	4858.000000
463230.769	542034.884	4874.000000
463261.538	542034.884	4887.000000
463292.308	542034.884	4907.000000
463323.077	542034.884	4915.000000
463353.846	542034.884	4924.000000
463384.615	542034.884	4932.000000
463415.385	542034.884	4947.000000
463446.154	542034.884	4960.000000
463476.923	542034.884	4969.000000
463507.692	542034.884	4980.000000
463784.615	542034.884	5046.000000
463815.385	542034.884	5056.000000
463846.154	542034.884	5074.000000
463876.923	542034.884	5089.000000
463907.692	542034.884	5099.000000
463938.462	542034.884	5108.000000
463200.000	542065.663	4861.000000
463230.769	542065.663	4875.000000
463261.538	542065.663	4886.000000
463292.308	542065.663	4904.000000
463323.077	542065.663	4912.000000
463353.846	542065.663	4919.000000
463384.615	542065.663	4930.000000
463415.385	542065.663	4944.000000
463446.154	542065.663	4955.000000
463476.923	542065.663	4962.000000
463507.692	542065.663	4975.000000
463784.615	542065.663	5034.000000
463815.385	542065.663	5048.000000
463846.154	542065.663	5062.000000
463876.923	542065.663	5074.000000
463907.692	542065.663	5084.000000
463938.462	542065.663	5095.000000
